ncols         601
nrows         39
xllcorner     745468.5234
yllcorner     593796.1043
cellsize      10.0
NODATA_value  -9999.0
407 409 410 411 413 414 415 416 416 417 417 417 417 417 416 416 415 414 414 413 412 411 411 410 409 408 407 406 405 404 403 401 400 399 397 396 395 394 392 391 390 389 388 387 387 386 386 385 385 385 385 385 385 385 385 385 386 386 386 386 385 385 385 384 384 383 383 382 381 381 380 379 378 377 377 376 375 374 373 372 371 370 369 367 366 365 364 364 363 362 361 360 359 359 358 358 357 356 356 355 354 353 352 351 350 350 348 347 346 345 345 345 344 343 342 342 341 342 341 341 341 341 341 341 341 341 341 341 341 341 340 340 340 340 340 340 340 340 340 339 339 339 339 340 341 343 345 347 350 352 356 359 361 363 363 364 364 363 361 359 355 350 346 342 340 339 341 345 350 355 360 365 369 373 376 380 384 387 390 393 395 397 398 400 401 403 404 405 406 407 408 409 410 410 411 411 412 413 413 413 413 414 414 414 414 414 413 413 413 413 413 413 412 412 412 411 411 411 410 409 409 408 407 407 406 405 404 404 403 402 401 400 399 398 397 396 395 394 392 391 390 388 387 386 384 383 381 380 378 377 375 374 372 370 369 367 365 364 362 360 359 357 356 354 353 352 351 350 349 349 348 347 346 346 345 344 344 343 343 342 341 339 338 338 337 336 335 334 334 333 332 331 331 330 330 329 328 328 327 327 327 326 325 326 326 326 326 326 328 331 334 337 340 342 345 348 351 354 357 359 360 362 363 365 366 368 369 371 373 374 376 378 380 382 384 385 386 388 389 390 390 391 392 393 394 394 394 395 395 395 395 394 394 393 393 392 391 391 390 389 388 387 387 386 385 384 383 382 381 380 378 377 375 374 373 372 371 371 370 369 369 369 370 370 370 370 371 371 371 372 372 373 374 375 376 377 378 379 379 380 381 381 382 382 383 384 382 379 378 377 379 382 386 390 390 389 388 387 388 388 389 389 389 389 390 391 393 395 397 399 401 403 404 405 406 407 408 409 410 411 413 414 415 416 416 417 418 419 420 421 421 422 422 423 424 425 427 428 429 430 430 431 432 433 433 434 434 435 436 437 439 440 442 444 445 446 447 448 449 449 450 451 451 452 453 454 454 455 456 457 457 458 459 459 460 460 461 461 461 462 462 463 463 464 464 464 465 465 465 465 466 466 466 466 467 467 467 467 467 467 467 467 467 467 467 467 466 466 466 465 465 465 464 464 463 463 462 462 461 461 460 460 459 458 458 457 456 456 455 455 454 454 453 452 452 451 450 450 450 449 449 449 448 448 448 448 447 447 447 447 448 450 451 451 452 453 453 452 452 452 452 451 451 451 451 451 451 450 450 449 449 448 448 447 447 446 445 445 445 445 445
409 410 411 413 414 415 416 417 418 418 418 418 418 418 417 417 416 416 415 415 414 413 412 411 410 409 408 407 406 405 404 403 401 400 399 398 397 395 394 393 391 390 390 389 389 388 387 387 387 386 386 386 386 386 386 387 387 387 387 387 386 386 386 385 385 384 384 383 382 381 380 380 379 378 377 376 375 374 373 372 371 370 368 367 366 365 364 364 363 362 361 360 360 359 359 358 357 357 356 355 354 354 353 352 351 351 350 349 347 346 345 345 345 343 343 342 342 341 341 341 341 341 341 341 341 341 341 341 341 341 340 340 340 340 340 340 340 340 339 339 339 339 339 339 339 340 341 343 345 348 351 354 357 359 361 362 362 361 360 357 353 349 344 340 339 338 341 346 351 356 361 366 370 374 378 382 385 389 392 394 396 398 399 401 402 403 405 406 406 407 408 409 410 410 411 411 412 412 413 413 413 413 413 413 413 413 413 412 412 412 412 412 412 411 411 411 410 410 409 409 408 407 407 406 405 404 404 403 402 401 400 399 398 398 396 395 394 393 392 390 389 388 387 385 384 382 381 379 378 376 375 373 372 370 368 366 365 363 361 359 358 357 355 354 353 352 351 350 350 349 348 348 347 347 346 345 345 344 343 342 341 339 338 337 337 336 335 334 333 332 331 331 331 330 330 329 328 326 326 326 326 325 325 325 325 325 326 326 329 333 336 338 341 343 346 350 353 355 357 359 361 362 364 365 366 368 369 371 373 374 376 378 380 382 383 385 386 387 388 389 390 391 392 392 393 394 394 394 394 394 394 393 393 392 391 390 389 389 388 387 386 385 385 384 383 381 380 379 378 376 375 373 372 371 370 370 369 368 368 368 368 368 368 369 369 369 370 370 370 371 371 372 372 373 374 375 375 376 377 377 377 378 379 380 381 382 381 378 377 376 378 381 383 384 384 384 383 383 384 385 386 387 388 389 390 392 394 397 400 402 404 405 406 407 408 409 411 412 413 415 416 418 419 420 420 420 420 421 421 422 423 423 424 425 426 427 428 429 430 431 431 431 433 434 435 436 437 437 439 441 443 444 445 446 447 448 448 449 450 450 451 452 453 453 454 455 455 456 457 457 458 458 459 459 460 460 461 461 461 462 462 463 463 463 464 464 464 464 465 465 465 465 466 466 466 466 466 466 466 466 466 466 466 466 466 466 465 465 465 464 464 463 463 462 462 462 461 461 460 460 459 458 458 457 457 456 455 455 454 454 453 453 452 451 451 450 450 449 449 448 448 448 448 447 447 447 447 446 446 446 447 447 449 451 451 452 451 450 450 449 448 448 448 448 447 447 447 447 447 447 446 446 446 446 446 445 445 445 445 445 444
410 412 413 415 416 417 418 418 419 420 420 420 420 419 419 418 418 417 416 416 415 414 413 412 411 410 409 408 407 406 405 404 403 401 400 399 398 397 396 394 393 392 391 391 390 390 389 389 388 388 388 388 388 388 388 388 388 388 388 387 387 387 386 386 385 385 384 383 383 382 381 380 379 379 378 377 376 375 374 372 371 369 368 367 366 365 364 363 363 362 361 360 360 359 359 358 358 357 356 356 355 354 353 352 352 351 350 349 348 346 345 345 345 345 345 344 344 344 343 343 343 343 343 343 343 343 343 343 342 342 342 342 342 341 341 341 341 340 340 340 339 339 339 339 339 339 339 340 342 344 347 350 353 356 357 358 358 358 356 354 351 348 344 339 338 338 342 346 351 356 361 366 370 375 379 383 387 390 393 395 397 399 400 402 403 404 405 406 407 408 408 409 410 410 411 411 412 412 412 413 413 413 413 413 412 412 412 412 412 412 411 411 411 411 410 410 409 409 408 408 407 406 406 405 404 404 403 402 401 400 399 399 398 397 396 395 393 392 391 390 388 387 386 385 383 382 380 379 378 376 374 373 371 369 367 365 363 362 360 358 357 356 355 354 353 352 351 351 350 350 349 349 348 348 347 346 345 345 344 342 341 340 339 338 337 336 335 333 332 331 331 330 330 329 329 328 327 326 325 325 325 325 325 325 325 326 326 327 330 334 337 339 342 345 348 351 354 356 358 359 361 362 364 365 366 368 369 371 372 374 376 378 380 381 383 384 385 386 387 388 389 390 391 392 393 393 394 394 393 393 393 392 391 390 389 388 387 387 386 385 384 383 382 381 379 378 377 376 374 373 371 370 369 369 368 367 367 367 367 366 367 367 367 367 368 368 368 369 369 369 370 370 371 371 372 372 373 373 374 374 374 374 375 376 377 379 378 376 375 375 377 379 381 381 381 381 382 383 384 385 386 387 389 390 392 394 397 400 403 404 406 407 408 409 410 412 413 415 416 417 419 420 421 421 422 422 422 422 423 423 424 425 426 427 428 429 430 430 431 432 433 433 434 436 437 439 440 440 442 444 445 446 446 447 448 449 449 450 451 452 452 453 454 454 455 455 456 457 457 458 458 459 459 460 460 460 461 461 462 462 462 463 463 463 463 463 464 464 464 464 465 465 465 465 465 465 465 465 465 465 465 465 465 465 465 464 464 464 463 463 462 462 461 461 461 460 460 459 459 458 458 457 457 456 455 455 454 454 453 453 452 452 451 451 450 449 449 448 448 447 447 447 447 446 446 446 446 446 445 445 446 446 447 450 450 450 449 448 448 447 447 446 446 446 446 446 446 446 446 446 445 445 445 445 445 445 445 445 445 444 444
412 414 415 417 418 418 419 420 420 421 421 422 421 421 420 420 419 418 417 417 416 415 414 413 412 411 410 409 408 407 406 405 404 403 402 401 400 399 398 396 395 394 393 393 392 392 391 391 390 390 390 390 389 389 389 389 389 389 389 388 388 388 387 386 386 385 385 384 383 382 381 380 380 379 378 377 376 375 374 372 370 369 368 366 366 365 364 363 362 362 361 360 359 359 358 358 357 357 356 356 355 354 353 352 352 351 351 350 348 346 345 345 346 348 348 348 348 347 347 346 346 347 347 347 347 347 347 346 346 345 344 344 343 343 343 343 342 342 341 341 340 340 339 339 338 338 339 339 339 340 343 345 348 351 353 353 353 352 352 351 349 347 343 339 338 339 342 346 351 355 360 366 371 376 381 385 389 392 394 396 398 400 401 402 404 405 406 407 407 408 408 409 409 410 410 411 411 412 412 412 412 412 412 412 412 411 411 411 411 411 411 410 410 410 409 409 408 407 407 407 406 406 405 404 404 403 402 402 401 400 399 398 397 396 395 394 392 391 390 389 388 386 385 384 383 381 380 378 377 375 374 372 370 368 366 364 362 360 359 357 356 355 354 353 353 353 352 352 351 350 350 350 350 348 347 346 346 345 344 343 341 340 339 338 337 336 334 332 331 330 330 330 329 329 328 327 326 326 325 325 325 325 325 325 325 326 327 328 331 335 338 341 344 347 350 352 355 357 358 360 361 362 364 365 366 368 369 371 372 374 376 378 379 381 382 383 385 386 387 388 389 390 391 392 393 393 393 393 392 392 391 390 389 388 387 386 385 384 383 382 381 380 379 377 376 374 373 372 371 369 369 368 367 367 366 366 365 365 365 365 365 365 366 366 366 367 367 367 368 368 368 369 369 369 370 370 370 370 370 370 370 371 371 372 374 375 375 373 373 374 375 377 378 380 381 382 383 385 386 387 388 389 391 393 395 398 400 403 405 406 407 408 410 411 413 414 416 418 419 420 420 421 421 422 422 423 423 423 424 425 426 427 428 429 429 430 430 431 432 434 435 436 437 438 440 442 443 444 445 446 446 447 448 448 449 450 450 451 452 453 453 454 455 455 456 456 457 457 458 458 459 459 459 460 460 460 461 461 461 462 462 462 462 462 463 463 463 463 464 464 464 464 464 464 464 464 464 464 464 464 464 464 464 464 463 463 463 462 462 461 461 461 460 460 459 459 458 458 457 457 457 456 456 455 454 454 453 453 453 452 452 451 450 450 449 448 448 447 447 447 446 446 446 445 445 445 445 445 445 445 445 445 447 449 449 448 447 446 446 446 446 446 446 446 446 446 446 446 446 445 445 445 445 445 445 445 445 445 444 444 444
414 415 417 418 419 420 420 421 421 422 422 422 422 422 421 420 420 419 418 417 416 415 414 413 413 412 411 410 409 408 407 406 405 404 403 402 401 400 399 398 397 396 395 394 394 393 393 393 392 392 392 391 391 391 390 390 390 390 389 389 389 388 388 387 386 386 385 384 383 382 382 381 380 379 378 376 375 374 373 371 370 368 367 366 365 364 363 363 362 362 361 360 359 359 358 358 357 357 356 355 355 354 353 352 352 351 350 349 348 346 346 346 347 349 350 350 350 349 349 349 349 349 349 349 350 350 349 349 348 347 347 346 345 345 345 345 344 344 343 342 342 341 340 340 339 339 338 338 338 339 340 342 344 346 347 347 347 347 347 346 345 344 342 338 338 338 341 344 349 353 359 364 371 377 382 387 390 393 395 397 399 400 402 403 404 405 406 407 407 408 408 409 409 410 410 411 411 411 411 412 412 412 411 411 411 411 411 411 410 410 410 410 409 409 408 408 407 407 406 406 406 405 404 404 403 402 402 401 400 399 398 397 396 395 394 393 392 391 389 388 387 386 385 383 382 381 379 378 376 374 372 371 369 367 365 363 361 359 358 357 356 355 355 354 354 353 353 353 352 351 351 351 350 349 348 347 346 345 344 343 342 340 339 338 337 336 334 332 330 330 329 329 329 328 327 326 325 325 325 325 325 325 325 325 325 326 328 329 332 336 339 342 345 348 351 353 355 357 358 360 361 362 364 365 366 368 369 371 372 374 376 377 379 380 381 383 384 385 386 387 389 390 391 392 392 392 392 391 391 390 390 389 387 386 385 384 383 382 381 379 378 377 375 373 372 371 370 369 368 367 366 366 366 365 365 364 364 364 364 364 364 364 364 365 365 365 366 366 366 366 367 367 367 368 368 368 368 368 368 368 368 369 370 370 371 373 373 373 373 375 376 377 378 380 382 383 385 387 388 390 391 392 394 396 398 401 403 406 407 408 409 410 412 413 415 416 418 420 420 421 421 422 422 423 423 424 424 425 426 427 427 428 429 430 430 430 431 432 434 435 437 438 440 441 442 444 445 446 446 447 448 448 449 449 450 451 451 452 453 454 454 455 455 456 456 457 457 458 458 458 459 459 460 460 460 460 461 461 461 462 462 462 462 462 462 462 463 463 463 463 463 463 464 464 464 464 464 463 463 463 463 463 462 462 462 461 461 461 460 460 459 459 459 458 458 458 457 457 456 456 455 455 454 454 453 453 452 452 451 451 450 450 449 448 448 447 447 446 446 446 445 445 445 444 444 444 444 444 444 444 444 444 446 449 449 447 446 446 446 446 446 446 446 446 446 445 445 446 445 445 445 445 445 445 445 445 445 445 444 444 444
416 417 418 420 420 421 422 422 422 422 422 422 422 422 421 420 420 419 418 417 417 416 415 414 413 412 412 411 410 409 408 407 406 405 405 404 403 402 401 400 399 397 397 396 396 395 395 394 394 393 393 393 392 392 392 391 391 391 390 390 389 389 388 387 387 386 385 384 383 383 382 381 379 378 377 375 374 373 371 370 368 367 366 365 365 364 363 362 362 361 360 359 359 358 358 357 357 356 355 355 354 354 353 352 352 351 350 349 348 347 347 348 348 349 350 350 351 351 351 351 351 351 351 351 351 351 351 350 350 349 349 348 347 347 346 346 346 346 345 345 344 344 342 341 340 339 339 338 338 338 339 339 340 341 341 342 342 342 341 341 340 340 339 338 337 337 339 342 346 350 356 362 370 378 384 388 391 394 396 398 399 401 402 403 404 405 406 406 407 407 408 408 409 409 410 410 410 411 411 411 411 411 411 411 411 410 410 410 410 410 409 409 409 408 408 407 407 406 406 406 405 404 404 403 403 402 401 400 399 398 398 396 395 394 393 392 391 390 389 388 387 385 384 383 381 380 378 377 375 373 371 369 367 365 364 362 361 359 358 357 357 356 355 355 355 354 354 354 353 352 351 351 350 348 347 347 346 345 344 343 342 340 339 337 336 336 334 332 330 329 329 328 328 327 326 325 325 325 325 325 325 325 325 325 325 326 328 330 333 337 341 344 346 349 351 353 355 357 358 359 361 362 363 365 366 368 369 371 372 374 375 377 378 380 381 382 383 385 386 387 388 390 391 391 391 391 390 390 389 389 388 387 386 385 383 382 381 379 377 376 374 373 371 370 369 368 367 367 366 365 365 364 364 364 363 363 363 362 362 363 362 362 363 363 364 364 364 365 365 365 365 365 365 366 366 366 366 367 367 367 368 369 369 370 370 371 372 373 375 376 378 379 381 383 384 385 387 390 391 393 394 395 397 399 401 404 406 408 409 410 411 413 414 415 417 418 419 420 421 421 422 422 423 423 424 425 426 427 427 428 428 429 430 431 431 431 433 435 436 438 439 441 442 443 445 446 446 447 448 448 449 449 450 450 451 452 452 453 454 455 455 456 456 457 457 458 458 458 459 459 459 459 460 460 460 460 460 461 461 461 461 461 461 462 462 462 462 462 462 462 462 463 463 463 463 463 462 462 462 461 461 461 461 460 460 459 459 459 458 458 458 457 457 457 456 456 456 455 455 455 454 454 453 453 452 452 451 451 450 450 449 448 448 447 447 446 446 445 445 445 445 444 444 444 443 443 443 443 443 443 443 444 446 448 448 448 447 446 446 446 446 446 446 446 446 445 445 445 445 445 445 445 445 445 445 445 445 444 444 444 444
417 419 420 420 421 422 422 422 423 422 422 422 422 422 421 420 420 419 418 418 417 416 415 414 414 413 412 411 411 410 409 408 407 407 406 405 404 403 402 401 400 399 398 398 397 397 396 396 395 395 394 394 393 393 393 392 392 391 391 390 390 389 389 388 387 386 385 384 383 382 381 380 379 378 376 374 373 371 370 369 368 367 366 365 364 363 362 362 361 361 360 359 358 358 357 357 356 355 355 354 354 354 353 352 351 351 350 348 348 348 348 349 349 350 350 351 352 352 352 352 352 352 353 353 353 353 352 352 351 351 350 349 349 348 348 348 348 348 347 347 346 346 344 343 342 341 340 339 339 339 338 338 338 338 339 339 339 339 339 338 338 338 337 337 337 337 338 339 343 347 353 359 368 377 383 387 391 393 395 397 399 400 402 403 404 405 405 406 406 407 407 408 409 409 409 410 410 410 410 411 411 411 410 410 410 410 410 410 409 409 409 408 408 407 407 406 406 406 405 405 404 404 403 403 402 401 401 400 399 398 397 396 395 394 393 392 391 390 388 387 386 385 383 382 381 379 378 376 374 372 370 368 366 365 363 362 361 360 359 358 358 357 357 356 356 355 355 354 354 353 352 351 349 348 347 347 346 345 344 343 342 340 339 337 336 335 334 333 331 329 328 328 327 327 326 326 325 325 325 325 325 325 325 325 325 326 328 331 334 338 342 345 347 349 351 353 355 357 358 359 360 362 363 365 366 367 369 370 372 373 375 376 378 379 380 382 383 384 385 386 388 389 389 389 389 389 389 388 388 387 386 385 384 382 381 379 377 376 374 372 371 369 368 367 366 366 365 365 364 364 363 363 363 362 362 362 361 361 361 362 361 361 362 362 363 363 363 364 364 363 364 364 364 365 365 365 366 366 367 368 369 370 370 371 371 372 373 374 376 378 380 381 383 384 386 388 390 392 394 395 397 398 400 402 404 407 408 410 411 412 413 414 416 417 418 419 420 421 421 422 422 423 424 425 425 426 427 428 428 429 429 430 431 432 433 433 435 437 438 440 441 443 444 445 446 447 447 448 449 449 450 450 451 451 452 453 454 454 455 456 456 457 457 458 458 458 459 459 459 459 459 460 460 460 460 460 460 460 460 461 461 461 461 461 461 461 461 461 461 462 462 462 462 462 461 461 461 461 460 460 460 459 459 458 458 458 457 457 457 456 456 456 455 455 455 454 454 454 454 453 453 452 452 451 451 450 450 449 449 448 448 447 447 446 446 445 445 445 444 444 444 443 443 443 442 442 442 442 442 443 443 444 445 447 448 448 447 446 446 446 446 446 446 446 445 445 445 445 445 445 445 445 445 445 445 445 445 444 444 444 444
419 420 420 421 421 422 422 422 422 422 422 422 422 421 421 420 420 419 419 418 417 416 416 415 414 413 413 412 411 411 410 409 408 408 407 406 405 404 404 403 402 401 400 399 399 398 397 397 396 396 395 395 394 394 394 393 393 392 392 391 390 390 389 388 387 386 385 384 383 382 381 380 378 376 375 373 371 370 369 368 367 366 365 364 363 363 362 361 361 360 359 358 357 357 356 356 355 355 354 354 353 353 352 352 351 350 349 348 349 350 350 350 350 351 352 352 353 353 353 353 353 354 354 354 354 354 353 353 353 352 352 351 351 350 350 350 350 350 349 349 348 347 346 345 344 344 343 341 340 339 339 339 338 338 338 338 338 338 337 337 337 337 337 337 336 336 337 337 340 344 350 356 365 374 381 386 389 392 394 396 398 400 401 402 403 404 404 405 406 406 407 408 408 409 409 409 410 410 410 410 410 410 410 410 410 409 409 409 409 408 408 407 407 407 406 406 405 405 404 404 404 403 402 402 401 401 400 399 398 397 396 396 395 394 392 391 390 389 388 387 386 384 383 382 380 379 377 375 373 371 369 367 366 365 363 362 362 361 361 360 360 359 358 357 357 356 356 355 354 353 352 350 349 348 348 347 346 344 344 343 342 341 340 338 337 335 334 333 332 329 328 327 327 327 326 326 326 325 325 325 325 324 324 325 326 327 329 332 336 339 342 345 347 349 351 353 355 356 358 359 360 362 363 364 366 367 369 370 371 373 374 376 377 379 380 381 382 384 385 386 387 388 388 388 388 387 387 387 386 385 384 383 381 379 377 375 374 372 370 369 367 366 366 365 365 364 364 363 363 362 362 362 361 361 361 360 360 360 360 361 361 361 361 362 362 362 362 363 363 363 363 363 363 364 364 365 366 367 368 369 371 372 372 373 373 374 375 377 378 380 381 382 384 386 388 390 392 395 396 398 399 401 403 405 407 409 410 411 412 413 415 416 417 418 418 419 420 421 422 422 423 424 425 426 427 427 428 428 429 430 430 431 432 433 434 435 437 439 441 442 444 445 446 446 447 448 448 449 449 450 451 451 452 453 453 454 455 456 456 457 457 458 458 459 459 459 459 459 459 459 459 460 460 460 460 460 460 460 460 460 460 460 460 460 460 460 460 460 461 461 461 461 461 460 460 460 460 459 459 459 458 458 457 457 456 456 456 455 455 454 454 454 454 453 453 453 453 452 452 452 451 451 450 450 449 449 448 448 448 447 447 446 446 445 445 444 444 444 443 443 443 442 442 442 441 441 441 441 442 442 443 443 444 446 447 447 447 446 446 446 446 446 446 446 445 445 445 445 445 445 445 445 445 445 445 445 444 444 444 444 444
419 420 420 421 421 421 422 422 422 422 422 422 421 421 421 420 420 419 419 418 418 417 416 415 415 414 413 413 412 411 411 410 409 408 408 407 406 405 405 404 403 402 401 401 400 399 399 398 397 397 396 396 395 395 394 394 393 393 392 391 391 390 389 388 387 386 385 384 382 381 379 378 376 375 373 371 370 369 368 367 366 365 364 364 363 362 361 361 360 359 359 358 357 356 356 355 355 354 354 353 353 352 352 351 351 350 350 350 350 351 352 352 352 353 353 354 354 354 355 355 355 355 355 355 355 355 355 354 354 354 353 353 352 352 352 352 351 351 351 351 350 349 348 347 347 346 345 344 342 341 340 340 339 339 339 339 339 339 338 338 338 338 338 337 337 336 336 336 338 342 347 354 362 371 378 384 388 391 393 396 398 399 400 401 402 402 403 404 405 406 406 407 408 408 409 409 409 410 410 410 410 410 410 409 409 409 408 408 408 407 407 407 406 406 406 405 405 404 404 403 403 402 402 401 401 400 399 399 398 397 396 395 394 393 392 391 390 389 388 386 385 384 382 381 380 378 376 374 372 371 369 368 366 365 364 363 363 362 362 361 361 360 359 358 357 357 356 355 354 353 352 351 349 348 347 346 345 344 344 343 342 341 340 339 337 335 334 334 332 329 328 327 327 327 326 326 326 326 325 325 324 324 324 325 326 327 330 333 336 340 343 345 347 349 351 353 354 356 357 358 360 361 363 364 365 367 368 370 371 373 374 375 377 378 380 381 382 383 384 385 386 386 386 386 386 386 385 385 384 383 381 380 378 376 374 372 370 368 367 366 365 364 364 363 363 363 362 362 362 361 361 360 360 360 360 359 359 359 359 360 360 360 360 361 361 361 362 362 362 362 363 363 363 364 364 366 367 368 370 371 372 373 374 375 375 376 377 379 380 381 383 384 386 388 390 392 394 396 398 400 402 403 405 407 409 411 412 412 413 414 415 417 417 418 419 420 421 421 422 423 424 425 426 427 427 428 428 429 430 430 431 432 433 435 436 437 439 441 442 444 445 446 447 447 448 449 449 450 450 451 451 452 453 454 454 455 456 456 457 458 458 459 459 459 459 459 459 459 459 459 459 460 459 459 459 459 459 459 459 459 459 459 460 460 460 460 460 460 460 460 459 459 459 459 459 458 458 458 457 457 456 456 455 455 455 454 454 453 453 453 452 452 452 452 452 451 451 451 451 450 450 449 449 449 448 448 447 447 446 446 446 445 445 444 444 443 443 443 442 442 442 441 441 441 440 440 440 441 441 442 442 443 444 445 446 447 447 446 446 446 446 446 446 445 445 445 445 445 445 445 445 445 445 445 444 444 444 444 444 444 444
419 420 420 421 421 421 421 422 422 422 422 421 421 421 421 420 420 419 419 418 418 417 416 416 415 414 414 413 412 412 411 411 410 409 408 408 407 406 405 405 404 403 403 402 401 400 400 399 399 398 397 397 396 395 395 394 393 393 392 392 391 390 389 388 387 386 385 383 381 379 377 376 374 373 371 370 369 368 367 366 366 365 364 363 363 362 361 360 360 359 358 357 357 356 355 355 354 354 353 353 352 352 351 350 350 350 351 352 352 352 353 354 355 355 355 356 356 356 356 356 356 356 357 357 357 357 356 356 355 355 355 354 354 354 354 353 353 353 353 352 352 351 350 350 349 349 348 347 345 344 342 341 341 341 341 340 341 341 341 341 341 340 340 339 338 336 336 336 338 340 345 352 360 368 375 381 386 390 393 396 397 398 398 399 400 401 402 403 404 405 406 407 407 408 408 409 409 409 409 409 409 409 409 408 408 408 407 407 407 406 406 406 405 405 405 404 404 404 403 403 402 402 401 401 400 400 399 398 397 396 396 395 394 393 392 391 390 389 387 386 385 384 382 381 379 378 376 374 372 371 370 368 367 366 365 365 364 363 362 361 361 360 359 358 358 357 357 355 354 353 352 351 349 348 347 346 345 344 343 343 342 340 339 338 337 335 334 334 332 330 328 327 327 327 326 326 326 326 325 324 324 324 325 325 326 327 330 333 336 340 343 345 347 349 351 352 354 355 357 358 359 361 362 364 365 366 368 369 371 372 374 375 377 378 379 380 382 383 383 384 384 385 385 385 385 384 384 383 382 380 378 376 374 372 370 368 367 365 364 363 363 363 362 362 362 361 361 361 360 360 360 359 359 359 359 359 358 358 359 359 359 359 360 360 360 361 361 361 361 361 362 362 363 364 366 367 369 370 372 373 374 375 376 376 377 378 379 380 382 383 385 386 388 390 392 395 396 398 399 401 403 405 407 409 410 411 412 413 414 415 416 417 418 418 419 420 421 422 423 424 425 426 426 427 427 428 429 430 431 431 433 434 436 437 439 440 441 443 444 445 446 447 447 448 449 449 450 450 451 452 452 453 454 455 455 456 457 457 458 458 459 459 460 460 460 460 460 459 459 459 459 459 459 459 459 459 459 459 458 459 459 459 459 459 459 459 459 459 459 458 458 458 458 457 457 457 456 456 456 455 455 454 454 453 453 452 452 451 451 451 450 450 450 450 450 450 450 449 449 449 448 448 448 447 447 447 446 446 445 445 445 444 444 443 443 443 442 442 442 441 441 440 440 440 440 440 440 440 441 441 442 443 444 445 446 447 447 446 446 446 446 445 445 445 445 445 445 445 445 445 445 445 445 444 444 444 444 444 444 444 443
419 420 420 420 421 421 421 421 421 421 421 421 421 421 421 420 420 419 419 418 418 417 417 416 415 415 414 413 413 412 412 411 410 410 409 408 408 407 406 406 405 404 404 403 402 401 401 400 399 399 398 397 396 396 395 394 394 393 392 392 391 390 389 388 387 385 383 381 379 377 376 374 373 371 370 369 368 368 367 366 365 364 364 363 362 362 361 360 360 359 358 357 356 356 355 355 354 354 353 353 352 352 351 351 351 351 352 353 354 354 355 356 357 357 357 357 358 358 358 358 358 358 358 359 359 359 358 358 357 357 356 356 356 356 355 355 355 355 354 354 354 353 352 352 351 350 350 349 348 346 345 344 343 343 343 343 344 344 344 344 343 343 342 341 339 338 337 336 337 339 344 350 358 367 374 380 385 389 392 395 396 396 397 398 399 400 401 403 404 405 406 407 407 407 408 408 408 408 408 408 408 408 408 407 407 407 406 406 406 406 405 405 405 404 404 404 403 403 403 402 402 401 401 400 400 399 398 398 397 396 395 395 394 393 392 391 390 389 387 386 385 384 382 381 379 378 376 375 374 372 371 370 369 367 367 366 365 364 363 362 361 360 360 359 358 358 357 356 354 353 352 351 349 347 346 346 345 344 343 342 341 340 339 338 337 335 334 334 332 330 329 327 327 326 326 326 326 325 325 324 324 325 325 325 326 327 330 333 336 340 343 345 347 349 350 352 353 355 356 358 359 361 362 363 365 366 368 369 371 372 373 375 376 378 379 380 381 382 383 383 383 384 383 383 383 383 382 381 379 377 375 373 371 369 367 365 364 363 362 362 361 361 361 361 360 360 360 360 359 359 359 358 358 358 358 358 358 358 358 358 358 359 359 359 359 360 360 360 361 361 362 363 365 366 367 369 371 372 373 374 375 376 377 378 379 379 381 382 383 384 386 388 390 392 394 396 397 399 401 403 405 407 408 410 411 412 413 414 415 415 416 417 418 419 420 421 422 423 423 424 425 426 427 427 428 429 430 431 432 433 434 436 438 439 441 442 443 444 445 446 447 447 448 449 449 450 451 451 452 453 453 454 455 455 456 457 457 458 459 459 459 460 460 460 460 460 459 459 459 459 459 458 458 458 458 458 458 458 458 458 458 458 458 458 458 458 458 457 457 457 457 457 456 456 455 455 455 454 454 454 453 452 452 451 451 450 450 449 449 449 448 448 448 448 448 448 448 448 448 447 447 447 446 446 446 446 445 445 444 444 444 443 443 442 442 442 441 441 440 440 440 439 439 439 439 439 439 440 441 441 442 443 444 445 446 446 446 446 446 446 445 445 445 445 445 445 445 445 445 445 445 445 444 444 444 444 444 444 443 443 443
419 419 420 420 420 421 421 421 421 421 421 421 421 421 420 420 420 419 419 419 418 417 417 416 416 415 414 414 413 413 412 412 411 410 410 409 409 408 407 407 406 405 405 404 403 402 402 401 400 399 399 398 397 396 395 395 394 393 392 392 391 390 389 388 386 384 381 379 377 376 374 373 372 371 370 369 368 367 367 366 365 364 364 363 362 362 361 360 360 359 358 357 356 356 355 355 354 354 353 353 353 352 352 351 352 353 354 355 356 356 357 358 358 358 359 359 359 359 360 360 360 360 361 361 361 361 360 360 359 358 358 358 357 357 357 357 357 356 356 356 355 355 354 353 353 352 352 351 350 349 348 348 347 347 347 347 347 347 347 347 346 345 344 343 341 339 338 336 337 338 342 349 358 367 374 380 385 389 391 393 394 395 396 397 398 399 401 402 404 405 406 406 407 407 407 407 407 407 407 407 407 407 407 407 406 406 406 405 405 405 404 404 404 404 403 403 403 402 402 402 401 401 400 400 399 398 398 397 397 396 395 394 394 393 392 391 390 389 387 386 385 384 382 381 380 379 377 376 376 375 374 372 371 369 368 367 366 366 365 363 362 361 360 359 359 358 357 356 355 354 352 351 349 348 346 346 345 343 342 341 341 340 339 338 337 335 334 333 332 331 329 327 327 326 326 326 325 324 324 324 325 326 326 326 326 327 329 332 336 340 343 345 347 348 349 350 352 354 355 357 359 360 362 363 364 366 367 369 370 372 373 375 376 378 379 380 381 382 382 382 382 382 382 382 381 381 380 378 377 375 372 370 368 366 364 363 362 361 361 360 360 360 360 359 359 359 359 359 358 358 358 357 357 357 357 357 357 357 357 358 358 358 358 358 358 359 359 360 361 362 363 365 366 368 369 371 372 374 375 375 376 377 378 379 380 381 382 383 385 386 387 389 391 393 395 397 398 400 402 405 406 408 409 411 412 412 413 414 415 416 417 417 418 419 420 421 422 423 424 425 426 427 428 428 429 430 431 432 433 435 436 437 439 441 442 443 444 445 445 446 447 448 449 449 450 451 451 452 453 453 454 455 455 456 457 457 458 459 459 459 460 460 460 460 460 459 459 459 459 458 458 458 458 457 457 457 457 457 457 457 457 457 457 457 456 457 456 456 456 456 455 455 455 454 454 453 453 453 452 452 451 450 450 449 448 448 447 447 446 446 446 446 446 446 446 446 447 447 446 446 446 445 445 445 445 445 444 444 443 443 442 442 442 441 441 441 440 439 439 439 439 438 438 438 438 439 439 440 440 441 442 443 444 445 445 446 446 445 445 445 445 445 445 445 445 445 445 445 445 445 444 444 444 444 444 444 444 443 443 443 443
419 419 420 420 420 420 421 421 421 421 421 421 421 420 420 420 420 419 419 419 418 418 417 417 416 415 415 414 414 413 413 412 412 411 410 410 409 409 408 407 407 406 405 405 404 403 402 401 401 400 399 398 397 396 395 394 394 393 392 391 390 389 388 387 385 382 380 378 376 375 374 373 372 371 370 369 368 367 367 366 365 365 364 363 363 362 361 361 360 359 358 357 357 356 356 355 355 354 354 354 353 353 353 353 354 355 356 356 357 357 358 359 359 359 360 360 360 361 361 362 362 362 362 363 363 362 362 361 360 360 359 359 359 359 358 358 358 358 358 357 357 356 356 355 355 354 354 353 353 352 351 351 351 351 350 350 350 351 350 350 349 348 346 344 341 339 338 336 336 337 342 349 358 368 375 380 384 388 390 391 392 393 395 396 397 399 400 402 403 404 405 406 406 406 406 406 406 406 406 406 406 406 406 406 405 405 405 404 404 404 404 403 403 403 402 402 402 401 401 401 400 400 400 399 399 398 397 397 396 396 395 394 393 393 392 391 390 389 388 387 385 384 383 382 380 379 378 378 377 376 375 374 372 370 369 368 367 367 366 365 364 362 361 360 359 358 357 357 355 354 353 351 349 348 347 346 345 343 342 341 340 339 338 337 336 335 334 333 332 331 329 327 326 325 325 325 325 324 324 324 325 326 326 326 327 327 330 333 336 339 341 343 345 346 347 349 351 352 355 357 358 360 361 363 364 366 367 369 370 372 373 375 376 378 379 380 381 381 381 381 381 381 380 380 379 378 377 375 374 371 369 367 365 363 362 361 360 360 359 359 359 359 358 358 358 358 358 358 357 357 357 356 356 356 356 356 356 356 356 357 357 358 358 358 358 359 360 361 362 363 365 367 368 370 371 372 373 375 376 376 377 378 379 380 381 382 383 384 386 387 389 391 392 394 396 398 399 402 404 406 407 409 410 411 412 413 413 414 415 416 417 418 419 420 421 422 423 424 425 426 426 427 428 429 430 431 432 434 435 437 438 439 440 442 443 444 444 445 446 447 447 448 449 450 450 451 452 452 453 454 455 455 456 457 457 458 458 459 459 459 460 460 460 460 459 459 459 458 458 458 457 457 457 457 456 456 456 456 456 456 456 455 455 455 455 455 455 455 454 454 454 454 453 453 452 451 451 450 450 449 449 448 447 446 446 445 445 444 444 444 444 444 444 445 445 445 445 445 445 445 445 445 444 444 444 444 443 443 442 442 441 441 441 440 440 440 439 438 438 438 438 438 438 438 438 438 439 440 440 441 442 443 443 444 445 445 445 445 445 445 445 445 445 445 445 445 445 445 445 444 444 444 444 444 443 443 443 443 442 442 442
419 419 419 420 420 420 420 420 420 420 420 420 420 420 420 420 420 419 419 419 418 418 417 417 416 416 415 415 414 414 413 413 412 412 411 410 410 410 409 408 407 407 406 405 404 403 403 402 401 400 399 398 397 396 395 394 393 392 392 391 390 389 387 386 383 381 379 377 376 375 374 373 372 371 370 369 368 368 367 367 366 365 365 364 363 362 362 361 360 359 359 358 357 357 356 356 356 355 355 354 354 354 354 355 355 356 356 357 357 358 359 360 360 360 361 361 362 363 363 363 364 364 364 364 364 364 363 362 362 361 361 360 360 360 360 360 359 359 359 359 358 357 357 357 357 356 356 356 355 355 354 354 354 354 354 354 353 353 354 354 353 351 348 344 341 338 337 336 336 337 342 350 360 369 376 381 384 387 389 390 391 392 394 395 397 399 400 401 403 404 405 405 405 405 405 405 405 405 405 405 405 405 405 405 404 404 404 404 403 403 403 402 402 402 402 401 401 401 400 400 400 399 399 398 398 398 397 397 396 395 395 394 393 393 392 391 390 389 388 387 386 385 383 382 381 380 379 378 378 377 376 374 373 371 370 368 367 367 367 367 365 364 363 362 361 360 358 357 356 354 353 351 350 348 347 346 345 344 342 341 340 339 338 337 336 335 334 333 332 330 329 327 325 324 324 324 324 324 324 324 325 325 325 326 327 328 330 334 336 338 339 341 342 343 345 347 349 351 354 356 358 360 361 362 364 365 367 368 370 372 373 375 376 378 379 380 380 381 380 380 380 379 379 378 377 375 374 372 370 368 366 364 362 361 360 359 359 358 358 358 358 357 357 357 357 357 356 356 356 356 356 355 355 355 355 355 355 355 356 356 356 357 357 358 359 360 361 362 364 365 367 369 370 371 372 373 375 376 377 378 378 379 380 381 382 383 384 385 387 388 390 392 393 395 397 399 401 404 405 407 408 409 410 411 412 413 414 414 415 416 417 418 419 421 422 423 424 424 425 426 427 428 429 430 431 433 434 436 437 438 439 440 442 443 444 444 445 446 446 447 448 448 449 450 451 451 452 453 453 454 455 456 456 457 457 458 458 459 459 459 459 459 459 459 459 458 458 458 457 457 457 456 456 456 455 455 455 455 455 455 454 454 454 454 454 454 454 453 453 453 452 452 452 451 450 449 449 448 447 446 446 445 444 443 443 442 442 442 442 442 442 443 443 443 443 444 444 444 444 444 444 444 443 443 443 443 442 442 441 441 440 440 440 440 439 439 438 437 437 437 437 437 437 437 437 438 439 439 440 441 442 443 443 444 445 445 445 445 445 445 445 445 445 445 445 445 445 444 444 444 444 444 444 443 442 442 442 442 442 441 441
419 419 419 419 420 420 420 420 420 420 420 420 420 420 420 420 419 419 419 419 418 418 418 417 417 416 416 415 415 414 414 413 413 412 412 411 410 410 409 409 408 407 406 405 405 404 403 402 401 400 399 398 397 396 395 394 393 392 391 390 389 388 386 384 382 380 378 377 376 375 374 373 372 371 371 370 369 369 368 367 367 366 365 365 364 363 363 362 361 360 359 359 358 358 357 357 356 356 355 355 355 355 355 356 356 357 357 358 358 359 360 360 361 361 361 362 363 363 364 365 365 365 365 365 365 365 364 363 363 363 362 362 361 361 361 361 361 361 360 360 360 359 359 360 360 360 359 359 359 358 358 358 358 358 357 357 357 357 357 357 355 352 348 343 340 337 336 335 336 338 344 352 361 369 375 380 383 386 388 389 390 392 393 395 396 398 399 401 402 403 403 404 404 404 404 404 404 404 404 404 404 404 404 404 403 403 403 403 402 402 402 402 401 401 401 400 400 400 400 399 399 399 398 398 397 397 397 396 396 395 395 394 393 393 392 391 390 390 388 387 386 385 384 383 382 381 380 379 379 378 377 375 374 373 371 369 368 368 368 367 366 365 363 363 361 360 359 358 356 355 353 352 350 348 347 346 345 344 343 341 340 339 338 337 336 335 334 333 332 330 328 327 325 324 323 323 324 324 324 324 324 325 325 326 327 328 330 333 335 335 337 338 339 340 342 344 347 349 352 355 357 359 361 362 364 365 367 368 370 371 373 375 376 378 379 380 380 380 379 378 378 377 376 375 374 372 370 369 367 365 363 361 360 359 358 358 357 357 357 357 356 356 356 356 356 356 355 355 355 355 354 354 354 354 354 354 354 355 355 356 356 357 358 358 360 361 362 364 365 367 369 370 371 372 373 374 375 377 378 378 379 380 381 382 383 384 385 386 388 389 391 393 394 396 398 400 402 405 406 407 408 409 410 411 412 413 414 415 416 417 418 419 420 421 422 424 424 425 426 427 428 429 430 431 432 434 435 437 438 439 440 441 442 443 444 444 445 446 446 447 447 448 449 450 451 451 452 453 454 454 455 456 456 457 457 458 458 458 459 459 459 458 458 458 458 458 457 457 457 456 456 455 455 455 454 454 454 454 453 453 453 453 453 453 452 452 452 452 451 451 451 450 450 449 448 447 446 445 444 444 443 442 441 440 440 440 440 440 440 441 441 441 442 442 442 443 443 443 443 443 443 443 442 442 442 441 441 441 440 440 439 439 439 439 438 438 437 437 437 437 436 436 436 437 437 438 438 439 440 441 442 443 443 444 444 444 445 445 445 445 445 445 445 445 445 445 444 444 444 444 443 443 442 442 441 441 441 441 441 441 441
418 419 419 419 419 419 420 420 420 420 420 420 420 420 419 419 419 419 419 419 418 418 418 417 417 417 416 416 415 415 414 414 413 413 412 412 411 410 410 409 408 407 406 406 405 404 403 402 401 399 398 397 396 395 394 393 392 391 390 389 388 387 385 383 381 380 378 377 376 375 375 374 374 373 372 371 370 370 369 368 368 367 367 366 365 365 364 363 362 361 361 360 359 359 358 358 357 357 356 356 355 355 356 357 357 357 358 359 359 360 360 361 361 362 362 362 363 364 365 365 366 366 366 366 366 366 365 364 364 364 364 363 363 362 362 362 362 362 362 362 362 362 363 363 363 363 363 363 363 363 363 362 362 362 362 362 361 361 361 361 357 351 346 341 338 337 336 335 337 339 346 355 362 369 374 378 382 384 386 388 389 391 392 394 395 397 398 399 400 401 402 403 403 403 403 403 403 403 403 403 403 403 403 403 403 403 402 402 402 401 401 401 400 400 400 399 399 399 399 398 398 398 398 397 397 397 396 396 395 395 394 394 393 393 392 392 391 390 389 388 387 386 385 384 383 382 382 381 379 378 377 376 375 374 373 371 370 369 368 367 366 365 364 363 362 361 359 358 357 355 354 352 350 348 347 346 345 344 343 341 340 339 338 336 336 335 334 333 332 330 328 327 325 324 323 323 324 324 324 324 324 324 325 325 326 327 329 330 332 333 334 335 336 337 339 341 344 347 350 353 355 358 360 361 363 365 366 368 370 371 373 375 377 378 379 379 379 378 378 377 376 375 373 372 370 368 367 365 363 362 360 359 358 357 357 356 356 356 356 356 355 355 355 355 355 355 354 354 354 353 353 353 353 353 354 354 354 355 355 356 357 358 359 360 361 363 364 366 367 368 370 371 372 373 374 375 376 377 378 379 380 381 382 383 384 385 386 387 389 390 392 393 395 396 399 402 403 405 406 407 408 409 410 411 412 413 414 415 416 417 418 419 421 422 423 424 425 425 426 427 428 430 431 432 434 435 437 438 440 441 441 441 442 443 444 444 445 445 446 446 447 448 449 450 451 451 452 453 453 454 455 456 456 456 457 457 458 458 458 458 458 458 458 457 457 457 456 456 456 455 455 454 454 454 453 453 453 452 452 452 452 452 451 451 451 451 450 450 450 449 449 448 447 447 446 445 444 442 442 441 440 439 439 438 438 438 438 438 439 439 440 440 440 441 441 442 442 442 442 442 442 441 441 441 441 440 440 440 439 439 439 438 438 438 437 437 436 436 436 436 436 436 436 436 437 437 438 439 440 441 442 443 443 444 444 444 444 444 445 445 445 445 445 445 444 444 444 444 444 442 442 441 441 441 441 441 441 441 441 441 441
418 418 419 419 419 419 419 419 419 419 419 419 419 419 419 419 419 419 419 418 418 418 418 417 417 417 416 416 416 415 415 414 414 413 412 412 411 411 410 409 408 407 406 405 404 403 402 401 400 399 398 397 395 394 393 392 391 390 389 388 387 386 384 383 381 380 379 379 378 378 377 377 376 376 375 374 373 372 372 371 370 369 368 368 367 366 365 365 364 363 362 361 361 360 359 359 358 358 357 357 357 357 357 358 358 358 359 360 360 361 361 361 362 362 363 363 364 364 365 366 366 366 366 366 366 366 366 365 365 365 365 364 363 363 363 363 363 363 364 364 364 364 365 365 366 366 366 366 366 366 366 366 366 365 365 365 364 363 362 360 355 349 344 339 337 336 335 335 337 342 348 356 362 368 372 377 380 383 385 387 389 391 392 393 395 396 397 398 399 400 400 401 402 402 402 402 402 402 402 402 402 402 402 402 402 402 401 401 401 400 400 400 399 399 399 398 398 398 398 398 397 397 397 397 396 396 396 395 395 395 394 394 394 393 393 392 391 390 390 389 388 387 386 386 385 384 383 382 381 379 378 377 376 375 374 373 372 370 369 368 367 366 365 364 363 361 360 359 357 356 354 353 351 349 348 347 345 344 343 341 340 339 338 336 335 335 334 333 332 330 329 327 326 325 324 323 323 324 324 324 324 324 324 325 326 327 328 328 329 330 331 332 333 334 336 338 340 343 347 350 353 356 358 360 362 364 366 368 369 371 373 375 377 378 378 378 377 377 376 374 373 372 371 369 367 366 364 363 361 360 358 357 356 356 355 355 355 355 354 354 354 354 354 354 354 353 353 353 352 352 352 352 352 353 353 354 354 355 356 356 358 359 360 361 363 364 366 367 368 369 370 372 373 374 375 376 377 378 379 380 381 382 383 384 385 386 387 388 389 391 392 394 396 397 400 402 404 405 406 407 408 409 410 411 412 414 415 416 417 418 419 420 421 422 423 424 425 426 427 428 429 431 432 433 435 436 437 439 440 441 441 441 442 442 443 444 444 445 445 446 447 448 449 449 450 451 452 452 453 454 454 455 455 456 456 457 457 457 457 457 457 457 457 456 456 456 455 455 454 454 454 453 453 452 452 452 451 451 451 450 450 450 450 449 449 449 448 448 448 447 446 446 445 444 443 442 441 440 439 438 437 437 436 436 436 436 436 437 437 438 438 439 439 440 440 440 441 441 441 441 440 440 440 440 439 439 439 439 439 438 438 437 437 437 436 436 435 435 435 435 435 435 435 436 436 437 438 439 440 441 442 443 444 444 444 443 444 444 444 445 445 445 445 444 444 444 444 443 442 441 441 441 440 440 440 441 441 441 441 441 442
418 418 418 419 419 419 419 419 419 419 419 419 419 419 419 419 419 419 419 418 418 418 418 418 417 417 417 416 416 415 415 414 414 413 413 412 411 411 410 409 408 407 406 405 404 403 402 401 400 398 397 396 395 393 392 391 390 389 388 387 386 385 384 383 382 381 381 381 381 381 381 381 380 380 379 378 377 376 375 374 373 372 371 370 369 368 367 367 366 365 364 363 362 361 361 360 360 359 359 359 359 359 359 360 359 359 360 360 361 362 362 362 363 363 364 364 364 365 366 366 367 367 367 367 367 367 366 366 366 365 365 365 364 364 364 364 365 366 366 366 366 366 367 367 368 368 368 368 368 368 368 368 368 368 367 367 365 363 360 357 352 346 341 338 336 335 335 334 338 344 350 357 362 367 371 375 379 382 385 387 389 390 392 393 394 396 397 397 398 399 399 400 400 400 401 401 401 401 401 401 401 401 401 401 401 401 400 400 400 399 399 399 398 398 398 397 397 397 397 397 397 396 396 396 396 395 395 395 395 395 395 394 394 394 393 392 392 391 390 390 389 388 388 387 386 385 384 383 382 381 380 379 378 377 376 374 373 372 371 369 368 367 366 365 363 362 361 359 358 356 355 353 352 350 349 347 346 344 343 341 340 339 337 336 335 335 334 333 332 331 330 329 327 326 324 323 323 324 324 324 324 324 324 324 325 327 327 327 327 327 328 330 331 332 333 334 336 339 343 347 350 353 356 359 361 363 365 367 369 371 373 375 377 377 377 377 376 375 373 372 371 369 368 366 365 363 362 361 360 358 357 356 355 354 354 354 353 353 353 353 353 352 353 353 353 352 352 352 351 351 351 352 352 352 353 354 355 355 357 358 359 360 361 363 364 365 367 368 369 370 371 372 373 374 375 376 377 378 379 380 381 382 383 384 386 387 388 389 390 391 393 394 396 399 401 403 404 405 406 407 408 409 410 411 412 414 415 417 418 418 419 420 421 423 424 425 425 425 427 429 431 432 433 434 435 437 438 439 439 440 441 441 441 442 443 443 444 444 444 446 446 447 448 449 449 450 451 452 452 453 454 454 455 455 455 456 456 456 456 456 456 456 455 455 455 455 454 454 453 453 452 452 451 451 451 450 450 450 449 449 448 448 448 447 447 447 446 446 445 444 444 443 442 441 440 439 438 437 436 435 434 434 434 434 435 435 435 435 436 436 437 437 438 438 439 439 439 439 439 439 439 439 439 439 439 438 438 438 438 437 437 436 436 436 435 435 434 434 434 434 435 435 435 435 436 437 438 439 441 442 443 444 444 444 444 443 443 444 444 444 444 444 444 444 444 443 442 441 441 440 441 441 441 440 440 441 441 441 441 441 442
418 418 418 418 418 418 418 418 418 419 419 419 419 419 419 419 419 419 418 418 418 418 418 418 417 417 417 416 416 415 415 415 414 413 413 412 411 411 410 409 408 407 406 405 404 403 402 400 399 398 396 395 394 392 391 390 389 388 387 386 386 385 385 384 383 383 383 384 384 384 384 384 384 383 383 382 381 380 379 378 377 376 375 373 372 371 371 370 369 368 367 366 365 364 363 363 362 362 362 362 362 362 362 362 362 361 361 362 362 363 363 363 363 364 364 365 365 366 366 367 367 367 367 367 367 367 367 367 366 366 366 366 366 366 366 366 366 367 367 367 367 368 368 369 369 370 370 370 370 370 370 370 370 369 368 367 365 362 358 354 349 343 340 337 336 335 335 335 339 346 352 357 362 366 371 375 379 382 384 387 388 390 391 393 394 395 396 397 397 398 398 399 399 399 399 399 399 399 400 400 400 400 400 400 400 400 400 399 399 398 398 398 397 397 397 396 396 396 396 396 396 395 395 395 395 395 395 395 395 395 395 394 394 394 393 393 392 392 391 391 390 390 389 388 387 386 385 384 383 382 381 380 379 378 377 376 375 374 372 371 369 368 367 366 364 363 362 360 359 357 356 355 353 351 350 348 346 344 343 341 340 338 337 336 335 334 333 332 331 331 330 329 328 327 325 324 323 323 324 324 324 324 324 324 325 327 327 327 327 327 327 328 329 330 331 332 334 336 339 343 347 350 354 357 360 362 365 367 369 372 374 375 376 377 376 375 374 372 371 370 368 367 366 364 363 362 360 359 358 356 355 354 354 353 353 352 352 352 352 351 351 351 351 352 351 351 351 351 351 351 351 351 352 353 353 354 355 356 358 359 360 361 363 364 365 366 367 368 369 370 371 372 373 374 375 377 378 379 380 381 382 383 384 385 387 388 389 390 391 392 393 395 397 400 401 403 404 405 406 407 408 409 410 411 412 414 416 417 418 419 420 421 422 423 424 425 426 427 428 430 432 433 434 435 436 437 438 438 439 439 440 440 441 441 442 443 443 443 444 445 446 446 447 448 449 449 450 451 452 452 453 453 454 454 454 454 455 455 455 455 455 454 454 454 454 453 453 452 452 452 451 450 450 449 449 449 448 448 447 447 446 446 446 445 445 444 444 443 442 442 441 440 439 438 437 436 435 434 433 432 432 432 433 433 433 434 434 434 435 435 436 436 437 437 438 438 438 438 438 438 438 438 438 438 438 437 437 437 437 436 436 435 435 435 434 434 433 433 434 434 434 434 435 436 437 438 439 440 441 442 443 444 444 444 443 443 443 443 444 444 444 444 444 444 443 443 442 441 440 440 440 441 441 440 440 441 441 441 441 441 442
417 418 418 418 418 418 418 418 418 418 418 419 419 419 419 419 418 418 418 418 418 418 418 418 417 417 417 416 416 416 415 415 414 414 413 412 412 411 410 409 408 407 406 405 403 402 401 400 398 397 395 394 393 391 390 389 388 387 387 386 386 385 385 385 385 386 386 386 387 387 387 387 386 386 386 386 385 384 383 383 381 380 379 378 377 375 374 374 373 372 371 370 369 368 367 366 366 365 365 365 365 365 365 365 365 364 364 364 364 363 363 364 364 364 365 365 366 367 367 368 368 368 368 368 367 367 367 367 367 367 367 368 368 368 368 368 368 368 369 369 369 369 370 370 371 371 371 372 372 372 371 371 371 370 368 366 364 360 356 351 346 341 338 336 335 334 335 336 341 346 352 358 362 366 371 375 379 382 385 387 388 390 391 393 394 395 396 397 397 397 397 398 398 398 398 398 398 398 399 399 399 399 399 399 399 399 399 398 398 397 397 396 396 396 395 395 395 395 395 394 394 394 394 394 394 394 394 394 394 394 394 394 394 394 393 393 393 392 392 391 391 391 390 389 388 387 387 386 385 384 383 382 381 380 379 378 377 376 374 372 371 369 368 367 366 364 363 362 360 359 358 356 355 353 351 349 347 345 343 341 340 339 338 337 335 334 333 332 331 331 330 329 328 327 326 324 323 323 323 324 324 324 324 325 326 326 327 328 327 327 327 328 329 330 330 330 331 333 336 339 343 347 351 355 358 361 364 366 369 372 374 375 376 376 375 373 372 370 369 368 367 366 364 363 361 360 359 357 356 355 354 353 352 352 351 351 351 350 350 350 350 350 351 351 350 350 350 350 350 351 351 352 352 353 354 355 356 357 359 360 361 362 363 365 366 367 368 369 370 370 372 373 374 375 376 377 378 379 380 381 382 383 385 386 387 388 389 390 391 392 394 396 398 400 402 403 404 405 406 407 408 409 410 411 413 414 416 417 418 419 420 421 422 424 425 426 427 429 430 431 433 434 435 435 436 437 437 438 438 439 439 440 440 441 441 442 442 443 444 444 445 446 446 447 448 449 450 450 451 451 452 452 453 453 453 453 453 453 453 453 453 453 453 453 452 452 452 451 451 450 449 449 448 448 447 447 446 446 445 445 444 444 443 443 442 442 441 441 440 439 438 438 437 436 434 433 432 432 431 430 431 431 431 432 432 432 433 433 434 434 435 436 436 437 437 437 437 437 437 437 437 437 437 437 437 437 437 436 436 435 435 434 434 433 433 433 432 433 433 433 434 434 435 436 437 439 440 441 442 443 443 443 444 444 443 443 443 443 443 443 443 443 443 443 442 442 442 441 441 440 440 440 441 440 441 441 441 441 441 441 441
417 417 417 418 418 418 418 418 418 418 418 418 418 418 418 418 418 418 418 418 418 418 418 418 417 417 417 416 416 416 415 415 414 414 413 412 412 411 410 409 408 407 406 405 403 402 401 399 398 396 395 393 392 391 390 389 388 387 387 386 386 386 386 386 387 388 388 389 389 389 389 389 389 389 389 388 388 387 387 386 385 384 383 382 380 379 378 377 376 375 374 373 372 371 371 370 370 369 369 369 368 368 368 368 367 367 366 366 365 365 364 364 365 365 366 366 366 367 367 368 368 368 368 368 368 368 368 367 368 368 368 369 369 369 369 369 369 370 370 370 371 371 371 372 372 373 373 373 373 373 373 372 372 371 369 366 362 358 353 348 343 339 337 336 335 334 335 338 342 347 353 358 363 367 372 376 379 382 384 386 388 390 391 393 394 395 396 397 397 397 396 396 396 396 397 397 397 397 397 398 398 398 398 398 398 398 398 397 397 396 396 395 395 394 394 394 393 393 393 393 393 393 393 393 394 394 394 394 394 394 394 394 394 394 394 394 393 393 393 392 392 391 391 390 390 389 388 387 386 385 385 384 383 382 381 380 379 377 376 374 373 371 369 368 367 366 364 363 362 360 359 358 356 354 352 350 347 345 343 341 340 339 338 336 335 334 333 332 332 331 330 329 328 327 326 325 324 323 323 324 324 324 325 327 328 328 329 329 329 328 328 329 329 330 330 330 330 331 334 337 340 344 348 352 356 359 362 365 368 371 373 375 376 376 374 372 370 368 367 365 364 363 362 360 359 357 356 355 354 353 352 351 351 350 350 350 350 349 349 349 349 349 349 349 349 349 349 350 350 350 351 352 353 353 354 356 357 358 359 360 362 363 364 365 366 367 368 369 370 371 372 373 374 375 376 377 378 379 380 382 383 384 385 386 387 388 389 390 391 393 395 396 398 400 401 403 404 405 406 407 408 409 410 411 413 414 415 417 418 419 420 422 423 425 426 427 428 429 430 432 433 434 435 435 435 436 436 437 437 438 438 439 439 440 440 441 442 442 443 443 444 445 445 446 447 448 449 449 450 450 451 451 451 452 452 452 452 452 452 452 452 452 451 451 451 450 450 450 449 449 448 447 446 446 445 445 444 444 443 443 442 442 441 440 440 439 439 438 437 436 436 435 434 433 432 431 430 429 429 429 429 430 430 431 431 431 432 432 433 433 434 434 435 435 436 436 436 436 436 436 436 436 436 436 436 436 436 435 435 434 434 433 433 432 432 432 432 432 432 433 434 435 436 437 438 440 441 442 443 443 443 443 443 443 443 442 442 442 442 442 442 442 442 442 441 441 441 441 441 440 440 440 441 441 441 441 441 441 441 441 441
417 417 417 417 417 418 418 418 418 418 418 418 418 418 418 418 418 418 418 418 418 418 417 417 417 417 417 416 416 416 415 415 414 414 413 413 412 411 410 409 408 407 406 405 404 402 401 399 397 396 394 392 391 390 389 389 388 387 387 387 387 387 387 388 388 389 390 390 391 391 391 391 391 391 391 390 390 390 389 389 389 388 386 385 383 382 381 380 379 378 377 377 376 375 374 374 374 373 373 373 372 372 371 371 370 369 369 368 367 366 366 366 366 366 366 366 367 367 367 368 369 369 369 369 369 369 369 368 369 369 369 370 370 370 370 370 370 371 371 372 372 372 373 373 373 374 374 374 374 374 374 374 373 373 370 366 361 355 350 345 341 338 336 335 335 334 336 339 343 348 354 359 364 369 373 377 380 382 384 386 388 390 392 393 394 396 397 397 397 396 395 395 395 395 395 395 396 396 396 397 397 397 397 397 397 397 396 396 395 395 394 394 393 393 392 392 392 392 391 392 392 392 392 393 393 393 393 394 394 394 394 394 394 394 394 394 394 394 393 393 393 392 392 391 391 390 389 388 388 387 386 385 385 384 383 382 380 379 378 376 374 373 371 370 368 367 366 365 363 362 360 359 357 355 353 350 347 345 343 341 339 338 337 336 335 334 333 333 332 331 330 329 328 326 325 325 324 323 323 324 324 324 327 330 332 332 332 332 331 331 331 331 331 331 330 330 330 331 332 335 338 341 345 349 353 357 360 363 366 369 372 375 375 376 374 372 369 366 364 363 361 360 359 357 356 354 353 352 351 350 350 349 349 349 349 348 348 348 348 349 349 348 348 348 349 349 349 349 350 350 351 352 353 354 355 357 358 359 360 361 362 363 364 365 366 367 368 369 370 371 372 373 374 375 376 377 378 379 381 382 383 384 385 386 387 388 389 391 392 394 395 397 398 400 401 402 404 405 406 407 408 409 410 412 413 414 416 417 418 419 421 423 424 425 426 427 428 429 430 431 432 433 433 433 434 434 435 435 436 436 437 438 438 439 439 440 441 441 442 442 443 444 445 445 446 447 448 448 449 449 450 450 450 450 450 450 450 450 450 450 450 450 450 449 449 449 448 448 447 447 446 445 445 444 444 443 442 442 441 440 440 439 439 438 438 437 436 435 435 434 433 432 431 430 429 428 427 427 427 428 428 429 429 430 430 430 430 431 431 432 432 433 433 434 434 434 435 435 435 435 435 435 435 435 435 435 434 434 433 433 433 432 432 431 431 431 431 432 432 432 434 435 437 439 440 441 442 442 443 443 443 443 443 443 443 443 442 442 441 441 441 441 441 441 441 441 441 441 441 440 440 441 441 441 441 441 441 441 441 441 440
417 417 417 417 417 417 417 417 417 418 418 418 418 418 418 418 418 418 417 417 417 417 417 417 417 417 417 416 416 415 415 415 414 414 413 413 412 411 410 409 408 407 406 405 404 403 401 399 397 395 394 392 391 390 390 389 389 388 388 388 388 388 389 390 390 391 391 392 392 392 393 393 393 393 392 392 392 392 391 391 391 390 389 387 386 385 384 383 382 381 380 380 379 378 377 377 376 376 376 375 375 374 374 373 372 371 370 370 369 368 367 367 367 367 367 367 367 367 368 368 369 370 370 370 370 370 369 370 370 370 370 370 371 371 371 371 371 372 372 373 373 374 374 374 374 375 375 375 375 375 375 374 373 372 369 365 360 353 348 344 340 337 336 335 335 334 336 340 344 350 355 360 365 370 374 377 380 382 384 386 388 390 391 393 394 395 396 396 395 394 394 394 393 393 394 394 394 395 395 395 396 396 396 396 396 396 395 394 393 393 392 392 391 391 391 390 390 390 390 390 391 391 391 392 392 393 393 393 394 394 394 394 395 395 395 395 395 395 394 394 394 393 393 392 392 391 390 390 389 388 387 387 386 385 384 383 382 380 379 378 376 374 373 371 370 369 367 366 364 363 361 359 357 355 352 349 347 344 342 340 339 338 337 336 335 334 333 333 332 330 329 328 327 325 324 324 323 323 323 324 324 324 327 332 334 334 334 334 334 334 334 335 334 333 332 331 331 331 332 333 336 339 342 346 350 354 358 361 364 368 370 373 373 373 372 369 366 363 361 360 358 356 355 354 352 351 350 349 349 348 348 348 347 347 347 347 347 347 347 348 348 348 348 348 348 349 349 349 350 351 351 352 353 354 356 357 358 359 360 361 362 363 364 364 365 367 368 369 370 371 372 373 374 375 376 377 378 380 381 382 383 384 385 386 387 388 390 391 393 394 395 397 398 400 401 402 404 405 406 407 408 409 411 412 413 414 416 417 419 420 422 423 425 426 426 427 428 429 429 430 431 431 432 432 432 433 433 434 435 435 436 436 437 438 438 439 439 440 441 441 442 443 444 444 445 446 446 447 447 448 448 448 449 449 449 449 449 449 449 448 448 448 448 447 447 447 446 446 446 445 444 444 443 442 442 441 440 440 439 438 437 437 436 436 435 434 434 433 432 431 430 429 428 427 426 426 426 426 426 427 427 428 428 428 428 429 429 429 430 430 431 431 432 432 433 433 434 434 434 434 434 434 434 434 434 434 433 433 432 432 432 431 431 431 431 431 431 432 432 433 435 437 438 440 441 441 442 442 442 443 443 443 443 443 443 442 442 441 441 441 441 441 440 440 440 440 440 440 440 440 441 441 441 441 441 441 441 441 441 441 439
416 416 417 417 417 417 417 417 417 417 417 417 417 417 417 417 417 417 417 417 417 417 417 417 417 417 417 416 416 415 415 415 414 414 413 413 412 411 410 410 409 408 407 405 404 403 401 399 397 395 394 392 391 391 390 390 389 389 389 389 389 390 391 392 392 393 393 393 394 394 394 394 394 394 394 394 394 393 393 393 392 392 391 390 389 388 387 386 385 385 384 383 382 381 380 379 379 378 378 377 377 376 375 375 374 373 372 371 370 369 369 368 368 368 368 367 367 368 368 369 369 370 370 371 371 370 370 371 371 371 371 371 371 372 372 372 373 373 373 374 374 375 375 375 375 376 376 376 376 376 375 375 373 370 367 363 358 353 348 343 339 336 335 335 334 334 336 340 345 351 357 362 367 372 375 377 379 381 383 385 387 389 391 392 393 394 394 394 393 392 392 392 392 392 392 393 393 393 394 394 395 395 395 395 395 394 394 393 392 391 390 390 389 389 389 388 388 389 389 389 389 390 390 391 391 392 393 393 394 394 394 395 395 395 395 395 395 395 395 395 394 394 394 393 393 392 391 391 390 389 388 387 387 386 385 384 383 381 380 379 377 376 374 373 371 370 368 367 365 363 361 359 357 354 351 348 346 344 342 340 339 338 337 336 335 333 333 333 332 330 329 328 326 324 323 323 322 322 323 324 324 324 327 332 334 335 336 337 337 338 338 338 337 335 334 334 333 331 331 332 334 336 339 343 347 351 354 358 362 365 368 370 370 369 367 365 362 359 357 356 354 353 351 350 349 348 347 347 346 346 346 346 346 346 346 346 346 346 346 347 347 347 347 348 348 349 349 349 350 351 352 353 354 355 356 357 358 358 359 360 361 362 363 364 365 366 367 368 369 370 372 373 374 375 376 377 379 380 381 382 383 384 385 386 387 388 390 392 393 394 395 397 398 400 401 402 404 405 406 407 408 410 411 412 413 415 416 418 419 421 423 424 425 426 426 427 427 428 429 429 429 430 430 431 431 432 432 433 433 434 435 435 436 436 437 438 438 439 440 440 441 442 442 443 444 444 445 446 446 446 447 447 447 447 447 447 447 447 447 447 446 446 446 446 445 445 445 444 444 443 442 442 441 440 440 439 438 438 437 436 435 435 434 433 432 431 431 431 430 428 427 427 426 425 425 424 424 424 425 426 426 426 427 427 427 427 428 428 429 429 430 431 431 431 432 432 433 433 433 433 433 433 433 433 432 432 432 432 432 431 431 431 430 430 430 430 431 432 433 435 437 438 439 440 441 441 442 442 442 442 443 443 443 442 442 442 441 441 440 440 440 440 440 440 440 440 440 440 440 440 440 440 440 440 441 441 441 441 441 440 438
416 416 416 416 416 417 417 417 417 417 417 417 417 417 417 417 417 417 417 417 417 417 417 417 417 417 417 416 416 416 415 415 415 414 414 413 412 412 411 410 409 408 407 406 404 403 401 399 397 396 395 393 393 392 391 391 391 390 391 391 392 392 393 394 394 395 395 395 395 396 396 396 396 396 396 395 395 395 394 394 394 393 393 392 391 390 389 388 387 387 386 385 384 383 382 381 381 380 380 379 378 378 377 376 375 374 373 372 371 371 370 369 369 369 368 368 368 369 369 369 370 370 371 372 372 371 371 371 372 372 372 372 372 373 373 373 374 374 374 375 375 376 376 376 376 377 377 377 376 376 376 375 373 369 365 361 357 352 347 342 339 336 335 335 334 334 337 342 347 353 359 364 368 372 374 376 378 380 381 383 385 388 389 390 390 391 390 390 389 388 388 388 388 388 389 390 391 391 392 393 393 393 392 392 392 392 391 390 389 388 388 387 387 387 387 387 387 387 387 388 388 389 390 390 391 392 392 393 394 394 395 395 395 396 396 396 396 396 396 396 395 395 395 394 394 393 392 391 391 390 389 388 387 386 385 384 383 382 381 380 378 377 375 374 372 370 369 367 365 363 361 358 355 352 349 347 345 343 341 340 338 337 337 336 335 333 333 332 331 330 328 327 326 324 323 322 322 322 322 323 324 324 327 332 334 335 337 338 339 340 340 341 340 338 337 336 335 332 332 332 333 334 337 340 344 348 352 355 359 363 365 366 366 364 362 360 357 355 353 352 351 349 348 347 346 345 345 345 345 345 345 345 345 345 345 346 346 346 346 347 347 347 347 348 348 349 349 350 350 351 352 353 354 355 356 357 357 358 359 360 361 362 363 364 365 366 367 368 369 370 371 372 374 375 376 378 379 380 381 382 383 384 385 386 388 389 390 392 393 394 395 397 398 400 401 402 404 405 406 407 408 410 411 412 413 415 416 418 420 422 423 424 425 425 426 426 427 427 428 428 428 429 429 430 430 431 431 432 432 433 433 434 434 435 436 436 437 438 438 439 440 440 441 442 442 443 444 444 444 444 445 445 445 445 445 445 445 445 445 445 445 444 444 444 443 443 443 442 442 441 440 440 439 438 437 437 436 435 435 434 433 432 431 431 430 429 428 428 427 426 425 424 424 423 423 423 423 423 424 424 425 425 425 426 426 426 427 427 428 428 429 430 430 430 431 431 431 432 432 432 432 432 432 431 431 431 431 431 431 430 430 430 430 430 430 430 431 433 435 436 438 439 440 440 441 441 442 442 442 442 442 442 442 442 442 441 441 440 440 440 440 440 440 440 440 439 440 440 440 440 440 440 440 440 441 441 441 441 440 439 436
416 416 416 416 416 416 416 416 416 417 417 417 417 417 417 417 417 417 417 417 417 417 417 417 417 417 417 416 416 416 416 415 415 414 414 413 413 412 411 410 409 408 407 406 404 403 401 399 398 397 396 395 394 394 393 393 392 393 393 393 394 395 395 396 396 397 397 397 397 398 398 397 397 397 397 397 397 396 396 396 395 395 394 393 393 392 391 390 389 388 387 386 385 385 384 383 383 382 381 381 380 379 379 378 377 376 375 374 373 372 371 371 370 370 369 369 370 370 370 370 371 371 371 372 372 372 372 372 372 373 373 373 373 373 374 374 375 375 375 376 376 377 377 377 377 378 378 377 377 377 376 375 372 368 363 359 355 350 346 342 338 336 335 334 334 334 338 343 350 356 361 366 369 371 372 374 376 378 380 381 382 385 386 387 387 386 385 385 384 383 383 383 383 383 385 386 387 389 390 390 390 389 389 389 388 388 387 386 385 385 385 385 385 385 385 385 385 386 386 387 388 388 389 390 391 391 392 393 394 395 395 396 396 396 397 397 397 397 397 396 396 396 395 395 394 394 393 392 392 391 390 389 388 387 386 385 384 383 382 380 379 377 376 374 372 371 369 367 365 363 360 357 354 351 348 346 344 342 341 339 338 337 336 335 334 333 333 332 331 329 328 328 326 324 323 322 322 321 322 323 324 324 327 331 333 335 336 338 339 341 342 342 342 342 340 338 336 334 333 333 333 333 335 337 340 344 349 353 357 360 361 361 360 358 357 355 352 350 349 348 347 346 345 343 343 343 343 343 344 344 344 344 344 345 345 345 346 346 346 347 348 348 348 349 349 349 350 350 350 351 352 352 353 354 355 356 357 357 358 359 360 361 362 363 364 365 366 367 368 369 371 372 374 375 377 378 379 380 381 382 383 384 385 386 388 390 391 392 393 394 395 397 398 400 401 403 404 405 406 407 408 410 411 412 414 415 417 419 421 422 423 424 424 425 425 426 426 426 427 427 427 428 428 429 429 430 430 431 431 432 432 433 433 434 434 435 436 436 437 438 438 439 440 440 441 441 442 442 442 443 443 443 443 443 443 443 443 443 443 443 443 443 442 442 441 441 440 440 439 439 438 438 437 436 435 434 434 433 432 431 430 429 429 428 427 426 425 424 423 423 422 422 422 421 421 421 422 422 422 423 424 424 424 424 425 425 426 426 427 427 428 428 429 429 430 430 430 430 430 430 430 430 431 431 431 431 431 430 430 430 429 429 429 429 430 431 433 434 436 437 438 439 440 440 441 441 441 441 442 442 442 442 442 442 441 440 440 440 440 440 440 439 439 439 438 438 438 440 440 440 440 440 440 440 440 441 441 441 439 437 434
415 416 416 416 416 416 416 416 416 416 416 416 416 416 416 416 417 417 417 417 417 417 417 417 417 417 417 417 416 416 416 416 415 415 414 414 413 412 411 411 410 409 407 406 405 403 402 400 399 399 398 397 396 395 395 394 394 395 395 396 396 397 397 398 398 399 399 399 399 399 399 399 399 399 399 398 398 398 397 397 397 397 396 395 394 393 392 391 390 390 389 388 387 386 386 385 384 384 383 382 382 381 380 380 379 377 376 375 374 373 373 372 371 371 371 371 371 371 371 371 372 372 372 372 373 373 373 373 374 374 374 374 374 374 375 375 376 376 376 377 377 378 378 378 378 378 378 378 378 377 376 375 371 367 362 358 354 350 346 341 338 336 334 334 334 334 337 343 349 355 360 365 367 368 369 370 372 374 376 377 379 381 382 382 382 381 381 380 379 378 378 378 378 379 380 382 384 385 386 387 386 386 385 385 385 384 384 383 383 382 382 383 383 383 383 383 384 385 385 386 387 388 389 390 391 392 392 393 394 395 396 397 397 397 398 398 398 398 397 397 397 396 396 396 395 395 394 393 392 392 391 390 389 388 387 386 385 383 382 381 379 377 376 374 373 371 369 367 365 362 359 356 353 349 347 345 343 342 340 339 338 337 336 335 334 333 332 332 330 329 328 327 326 325 323 322 322 321 322 323 323 324 326 330 332 334 336 338 340 341 343 344 344 344 342 340 338 336 335 334 333 333 334 335 338 341 345 350 353 355 356 355 354 353 351 349 348 346 345 344 344 343 343 342 341 342 342 342 343 343 344 344 345 345 345 346 346 347 347 348 348 349 349 350 350 350 350 350 350 351 352 352 353 354 355 356 357 357 358 359 360 361 362 363 364 365 366 367 368 369 371 372 374 375 377 378 379 380 381 382 383 384 385 387 388 390 391 392 393 394 396 397 399 400 401 403 404 405 406 407 408 409 411 412 414 415 417 419 421 422 423 423 424 424 425 425 425 425 426 426 427 427 428 428 428 429 429 430 430 430 431 431 432 433 433 434 435 435 436 436 437 437 438 439 439 440 440 440 441 441 441 441 441 441 441 441 441 441 441 441 441 441 440 440 439 439 438 438 437 437 436 435 434 433 432 432 431 430 430 429 428 427 426 425 424 423 422 421 421 420 420 420 420 420 420 420 420 421 421 422 422 423 423 423 424 424 425 425 426 426 427 427 428 428 429 429 429 429 429 429 429 430 430 430 430 430 430 430 430 429 429 428 429 429 430 432 433 435 436 437 438 439 440 440 441 441 441 441 441 442 442 442 441 441 441 439 439 439 439 439 439 439 438 438 437 437 437 439 440 440 440 440 440 440 440 440 440 440 438 434 432
415 415 415 416 416 416 416 416 416 416 416 416 416 416 416 416 416 416 416 417 417 417 417 417 417 417 417 417 416 416 416 416 415 415 415 414 413 413 412 411 410 409 407 406 405 404 403 402 401 401 400 399 398 397 397 397 397 397 397 398 398 399 399 400 400 401 401 401 401 401 401 401 401 400 400 400 400 399 399 399 398 398 397 397 396 395 394 393 392 391 390 389 389 388 387 386 386 385 385 384 383 383 382 381 380 379 378 377 376 375 374 373 373 372 372 372 372 372 372 372 372 372 373 373 373 374 374 375 375 375 375 375 375 376 376 376 377 377 377 378 378 379 379 379 379 379 379 379 378 377 376 374 370 366 362 357 353 349 346 342 338 335 334 333 333 333 337 341 347 353 358 362 364 363 364 366 368 369 370 372 374 376 376 377 376 376 376 375 374 374 374 374 374 375 377 378 380 381 382 382 382 382 382 382 382 381 381 380 380 380 380 380 380 381 382 382 383 384 385 386 387 388 389 390 391 392 393 394 395 396 397 398 398 398 398 398 398 398 398 398 397 397 397 396 396 395 394 394 393 392 391 390 389 388 387 386 385 384 382 381 379 378 376 374 373 371 369 367 364 361 358 355 352 348 346 344 343 341 340 338 337 336 336 335 334 332 332 331 330 328 327 326 325 324 324 323 322 322 322 323 323 324 326 328 331 334 336 339 341 342 344 344 344 344 343 341 340 338 337 336 335 334 334 334 336 338 342 346 348 350 350 349 348 347 346 345 343 342 341 341 341 341 341 341 341 341 342 342 342 343 344 345 346 346 346 347 347 348 348 349 349 350 350 351 351 351 351 351 351 351 351 352 353 354 355 356 357 358 359 360 360 361 362 363 364 365 367 368 369 370 371 373 374 375 376 377 378 380 381 382 383 384 386 387 388 390 391 392 393 394 396 397 399 400 401 402 403 404 406 407 408 410 411 412 414 415 417 419 420 421 422 423 423 424 424 424 424 425 425 425 426 426 427 427 427 428 428 428 429 429 430 430 431 432 432 433 433 434 434 435 435 436 436 437 437 438 438 439 439 439 439 439 439 439 439 439 439 439 439 439 439 438 438 437 437 436 436 435 435 434 434 433 432 431 430 430 429 428 427 427 425 424 422 422 421 420 419 419 419 418 418 418 418 418 419 419 419 419 420 421 421 422 422 422 423 423 424 425 425 426 426 426 427 427 427 427 428 428 428 428 429 429 429 429 429 430 430 429 429 428 428 428 428 429 430 432 434 435 436 437 438 439 440 440 441 441 441 441 441 441 441 441 441 441 440 438 438 439 439 439 438 438 437 437 436 436 437 438 439 440 440 440 440 440 440 440 440 439 436 433 431
415 415 415 415 416 416 416 416 416 416 416 416 416 416 416 416 416 416 416 417 417 417 417 417 417 417 417 417 417 416 416 416 416 415 415 414 414 413 412 411 410 409 408 407 406 405 404 403 403 402 401 401 400 399 399 398 399 399 399 400 400 401 401 402 402 402 403 403 403 403 402 402 402 401 401 401 401 400 400 400 399 399 398 398 397 396 395 394 394 393 392 391 390 389 389 388 387 387 386 385 385 384 383 383 382 380 379 378 377 376 376 375 374 374 374 374 374 373 373 373 373 373 374 374 374 375 375 376 376 376 376 376 376 377 377 377 378 378 379 379 379 380 380 380 380 380 380 379 379 378 376 373 370 365 361 357 353 349 345 342 338 335 334 333 333 333 336 339 344 350 354 357 358 357 359 361 362 363 365 367 369 371 371 372 371 371 371 370 370 369 369 369 370 371 372 374 376 377 377 378 378 378 378 379 378 378 377 377 377 377 377 378 378 379 380 381 382 383 384 385 386 388 389 390 391 393 394 395 396 397 398 399 399 399 399 399 399 399 398 398 398 398 397 397 396 396 395 394 393 393 392 391 390 389 388 386 385 384 383 381 379 378 376 374 372 370 368 366 363 361 357 354 351 348 345 344 342 341 339 338 337 336 335 334 333 332 331 330 329 328 327 326 325 324 323 322 322 321 322 322 323 323 325 327 330 334 337 339 341 343 344 345 345 345 344 343 341 340 338 337 336 335 334 334 335 336 339 342 344 345 345 344 343 343 342 341 341 340 340 340 340 340 341 341 341 342 342 343 343 344 345 346 347 347 348 348 349 349 350 351 351 352 352 352 352 352 352 351 351 351 352 352 353 354 355 356 357 358 359 360 361 362 363 364 365 366 367 368 369 370 371 373 374 375 376 377 378 380 381 382 384 385 386 387 389 390 391 392 393 395 396 397 399 400 401 402 403 404 405 407 408 410 411 413 414 415 417 419 420 421 421 422 423 423 423 423 424 424 424 425 425 425 426 426 426 427 427 427 428 428 429 429 430 430 431 431 432 432 433 433 433 434 434 435 436 436 436 437 437 437 437 437 437 437 437 437 437 437 437 437 436 436 436 435 434 434 433 433 432 432 431 431 430 429 428 427 426 426 425 424 422 421 419 419 418 417 417 417 417 417 417 417 417 417 418 418 418 418 419 420 420 421 421 421 422 422 423 424 424 425 425 425 426 426 426 427 427 427 427 428 428 428 429 429 429 429 429 428 428 428 428 428 428 429 431 432 434 435 436 437 438 439 440 440 441 441 441 441 441 441 441 441 441 441 439 438 438 438 438 438 437 437 436 436 435 435 436 437 438 439 440 440 440 440 440 440 439 437 434 431 429
414 415 415 415 415 415 415 415 415 416 416 416 416 416 416 416 416 416 416 417 417 417 417 417 417 417 417 417 417 417 417 416 416 416 415 415 414 413 412 411 410 409 408 408 407 406 405 405 404 404 403 402 401 401 400 400 400 401 401 402 402 402 403 403 404 404 404 404 404 404 403 403 402 402 402 402 402 401 401 401 400 399 399 398 397 397 396 396 395 395 394 393 392 391 390 390 389 388 387 387 386 386 385 384 383 382 381 380 379 378 377 377 376 376 375 375 375 375 374 374 374 374 375 375 376 376 376 376 377 377 377 377 377 378 378 379 379 380 380 381 381 381 381 381 381 381 381 380 379 378 376 373 369 364 360 356 352 349 345 341 338 336 334 333 333 333 334 336 340 347 349 350 350 351 352 354 356 358 360 362 364 366 367 367 367 367 366 366 365 364 364 365 365 366 368 370 371 373 373 373 374 375 375 375 375 373 373 373 374 374 375 376 377 378 379 381 382 383 384 385 387 388 389 391 393 394 395 397 397 398 399 399 399 399 399 399 399 399 399 399 398 398 398 397 397 396 395 395 394 393 392 391 390 389 388 387 385 384 383 381 380 378 376 374 372 370 368 365 363 360 357 353 350 347 345 343 342 341 339 338 337 336 335 334 333 332 331 329 328 327 326 325 324 323 322 321 321 321 322 322 323 323 324 326 330 334 337 340 342 343 345 346 346 346 345 344 343 341 340 339 338 336 336 335 335 335 336 338 339 340 340 340 339 339 339 340 339 339 339 340 340 341 341 342 343 343 344 345 345 346 346 347 348 348 349 350 350 351 352 352 353 354 354 354 354 353 353 352 352 351 352 353 354 355 356 357 358 359 360 361 362 363 364 365 366 367 368 368 369 370 371 373 374 376 377 378 379 380 381 382 384 385 386 388 389 390 391 392 394 395 396 398 399 400 401 402 403 404 405 406 408 410 411 413 415 416 417 419 420 420 421 422 422 422 422 423 423 423 424 424 424 424 425 425 425 425 426 426 426 426 427 427 428 428 429 429 430 430 431 431 432 432 433 433 434 434 434 435 435 435 435 435 435 435 435 435 435 435 435 434 434 434 433 433 432 432 431 431 430 430 429 429 428 427 425 425 424 423 422 420 419 418 417 416 416 415 415 415 415 415 416 416 416 416 417 417 417 418 418 419 419 420 420 420 421 421 422 423 423 423 424 424 425 425 425 426 426 426 427 427 427 428 428 428 428 428 428 427 427 427 427 427 428 429 431 432 434 435 436 437 438 439 440 440 441 441 441 441 441 441 441 441 441 440 439 437 437 438 438 437 437 436 436 435 434 434 435 436 437 439 440 440 440 440 440 440 438 435 432 429 428
414 414 414 414 414 414 415 415 415 416 416 416 416 416 416 416 416 416 417 417 417 417 417 417 417 417 417 417 417 417 417 416 416 416 415 415 414 414 413 412 411 410 409 409 408 407 407 406 406 405 404 404 403 402 402 402 402 402 403 403 404 404 404 405 405 405 405 405 405 405 405 404 404 403 403 403 403 402 402 402 401 400 400 399 399 398 397 397 396 396 395 394 393 392 391 391 390 389 389 388 387 387 386 385 384 383 382 382 381 380 379 378 378 377 377 377 376 376 376 375 375 375 376 377 377 377 377 377 378 378 378 379 379 379 380 380 381 381 381 382 382 382 382 382 382 382 382 381 380 379 377 374 369 364 360 356 352 349 346 342 339 336 334 333 333 333 334 334 338 342 344 344 345 346 347 348 350 353 355 357 359 361 362 362 362 362 361 361 360 360 360 360 361 362 363 365 367 368 369 369 370 371 371 371 370 369 369 369 370 371 372 374 376 377 379 380 382 383 385 386 387 389 391 392 394 396 397 398 398 399 399 400 400 399 400 400 400 400 399 399 399 399 398 398 397 396 396 395 394 393 392 391 390 389 388 387 386 384 383 381 380 378 376 374 372 370 367 365 362 359 356 353 350 347 345 343 342 340 339 337 336 335 334 333 332 331 330 329 328 326 326 325 324 323 322 321 321 321 321 322 322 323 324 326 330 334 337 340 342 344 345 346 347 347 347 346 345 343 342 341 339 338 337 336 336 335 335 336 337 338 338 338 338 338 339 339 340 340 340 341 341 342 342 343 344 345 346 346 347 348 348 349 349 350 351 352 352 353 354 354 355 355 355 355 355 354 354 353 352 352 352 353 354 355 356 357 358 359 360 361 362 363 365 366 367 368 369 369 370 371 372 373 374 376 377 378 379 380 381 383 384 385 387 388 389 390 391 393 394 395 396 398 399 400 401 402 403 404 405 407 408 410 412 413 415 416 417 418 419 420 420 421 421 421 422 422 422 423 423 423 423 424 424 424 424 424 424 424 425 425 425 426 426 427 427 428 428 429 429 430 430 431 431 431 432 432 432 432 433 433 433 433 433 433 433 433 433 433 432 432 432 431 431 430 430 430 429 428 428 427 427 426 425 424 423 422 421 420 419 418 416 415 415 414 414 414 414 414 414 415 415 415 415 415 416 416 416 417 417 417 418 418 419 419 420 420 421 421 422 422 423 423 424 424 425 425 425 426 426 427 427 427 427 428 427 427 427 426 426 426 426 427 428 429 431 432 434 435 437 438 438 439 440 440 440 440 440 441 441 441 440 440 440 440 438 437 437 437 437 437 436 435 435 434 434 433 434 436 437 439 440 440 440 440 439 439 437 434 431 428 427
414 414 414 414 414 414 414 414 415 415 415 415 415 416 416 416 416 417 417 417 417 417 417 417 417 417 417 418 417 417 417 417 416 416 415 415 415 414 413 412 412 411 410 410 409 409 408 408 407 406 405 405 404 404 403 403 404 404 405 405 405 406 406 406 406 405 406 407 407 407 406 406 406 405 405 405 404 404 403 403 402 402 401 400 400 399 398 398 397 396 396 395 394 393 392 392 391 390 390 389 389 388 387 386 386 385 384 383 382 381 381 380 380 379 378 378 378 377 377 377 376 376 376 378 378 378 379 379 379 380 380 380 380 381 381 382 382 382 383 383 383 384 384 384 383 383 383 382 381 380 378 375 371 365 361 357 353 350 347 344 340 336 334 333 333 333 333 334 335 337 338 338 340 341 342 344 346 348 351 353 354 356 357 357 357 356 356 355 355 355 355 355 356 357 358 360 362 364 364 365 365 366 366 366 365 364 364 365 366 368 370 373 375 377 379 381 382 384 385 387 389 391 393 394 396 397 398 398 399 400 400 400 400 400 400 401 400 400 400 400 399 399 399 398 397 397 396 395 394 394 393 392 390 389 388 387 386 384 383 381 380 378 376 374 372 370 367 365 362 359 356 353 350 347 345 343 341 340 339 337 336 335 334 333 332 330 329 328 327 326 325 324 323 323 322 321 321 321 321 322 322 322 324 327 331 334 337 340 342 344 345 347 348 349 349 348 347 345 344 343 342 340 339 339 338 337 336 337 337 338 338 338 338 339 340 340 340 341 342 342 343 344 344 345 346 347 347 348 349 349 350 350 351 352 353 354 355 355 356 356 356 357 356 356 356 355 354 354 353 352 353 354 355 356 357 358 359 360 361 362 363 364 365 367 368 368 369 370 371 371 372 373 374 376 377 378 379 381 382 383 384 385 387 388 389 390 392 393 394 395 396 397 399 400 401 402 403 404 406 407 409 411 412 414 415 415 416 417 418 419 419 420 420 421 421 421 422 422 422 422 422 423 423 423 423 423 423 423 423 423 424 424 424 425 425 426 426 427 428 428 429 429 429 430 430 430 430 430 430 431 431 431 431 431 431 431 430 430 430 430 430 429 429 429 428 428 427 426 426 425 424 423 423 422 420 419 418 417 416 415 414 413 413 413 413 412 413 413 413 414 414 414 414 414 414 415 415 415 416 416 417 417 418 418 419 419 420 420 421 421 422 422 423 424 424 424 425 426 426 426 426 427 427 427 426 426 425 425 425 426 426 426 428 429 431 433 434 436 437 438 439 439 440 440 440 440 440 440 440 440 440 440 440 439 438 436 436 437 437 436 435 435 434 434 433 433 434 436 438 439 439 440 439 439 439 438 435 432 429 427 426
413 413 413 413 414 414 414 414 414 414 415 415 415 415 416 416 416 417 417 417 417 417 417 417 417 417 418 418 418 417 417 417 416 416 416 415 415 414 414 413 412 412 411 411 410 410 409 409 408 407 407 406 406 405 405 405 406 406 406 406 407 407 407 407 407 407 407 408 408 408 408 408 408 407 407 406 405 405 404 404 403 403 402 401 401 400 399 399 398 397 397 396 395 394 393 393 392 391 391 390 390 389 388 387 387 386 385 385 384 383 382 382 381 381 380 379 379 378 378 378 378 378 378 379 380 380 380 380 381 381 382 382 382 382 383 383 384 384 384 384 385 385 385 385 384 384 384 383 382 381 379 377 372 367 362 358 354 351 348 345 341 338 335 333 332 333 333 333 333 334 334 335 336 337 338 339 341 344 346 348 350 351 352 352 352 351 350 350 350 350 350 350 351 352 353 355 356 358 359 360 361 362 361 361 360 360 360 362 364 367 370 373 376 378 380 382 383 385 387 389 391 393 394 396 397 398 399 399 400 400 401 401 401 401 401 401 401 401 400 400 400 400 399 398 398 397 396 396 395 394 393 392 391 389 388 387 386 384 383 382 380 378 376 374 372 370 367 365 362 359 356 353 350 347 344 343 341 340 338 337 336 334 333 332 331 330 329 328 326 325 324 324 323 323 322 322 321 321 321 322 322 322 325 328 331 334 337 340 342 344 346 348 349 350 351 351 350 348 347 345 344 343 342 341 340 339 339 339 339 339 339 339 340 341 341 342 342 343 344 345 345 346 347 348 348 349 350 350 351 351 352 352 353 354 355 356 356 357 357 357 357 357 357 357 356 355 355 354 353 353 353 354 355 357 358 359 360 360 361 362 364 365 366 367 368 369 370 371 371 372 373 374 375 376 377 379 380 381 382 383 384 386 387 388 389 391 392 393 394 395 397 398 399 400 401 402 403 404 406 408 409 411 413 414 415 415 416 417 418 418 419 419 419 420 420 421 421 421 421 421 422 422 422 422 422 422 422 422 422 422 422 422 423 423 424 424 425 426 426 426 427 427 427 428 428 428 428 428 428 428 428 428 428 428 428 428 428 428 428 428 427 427 427 426 426 426 425 424 423 422 421 420 420 419 418 417 415 414 414 413 412 412 411 411 411 411 412 412 412 413 413 413 413 413 413 413 414 414 415 415 416 416 417 417 418 418 419 419 420 420 421 422 422 423 424 424 425 425 426 426 426 425 425 425 425 424 424 424 425 425 426 426 428 429 431 433 435 436 437 438 439 439 439 440 440 440 440 440 440 439 439 439 439 439 437 436 436 436 436 435 434 434 433 433 433 432 434 437 438 439 439 439 439 439 438 436 434 430 428 426 425
413 413 413 413 413 413 413 414 414 414 414 414 415 415 415 416 416 416 416 417 417 417 417 418 418 418 418 418 418 417 417 417 417 416 416 416 415 415 414 414 413 413 412 412 411 411 410 410 409 409 408 407 407 407 407 408 408 408 407 407 408 408 409 409 409 409 409 409 409 409 409 409 409 408 408 407 407 406 405 405 404 404 403 402 402 401 400 399 399 398 397 397 396 395 394 394 393 393 392 391 391 390 389 388 388 387 386 386 385 385 384 383 383 382 381 381 380 379 379 380 380 380 381 382 382 382 382 382 382 383 383 383 384 384 384 385 385 385 385 386 386 386 386 386 386 385 385 384 384 382 381 378 374 369 364 360 356 352 349 345 342 339 336 333 332 333 333 333 333 333 333 333 334 334 335 335 337 340 342 344 345 346 347 348 347 346 345 345 345 344 345 345 346 347 348 349 351 352 353 354 355 357 356 356 355 356 357 360 363 368 371 375 378 379 381 383 385 386 388 391 392 394 396 397 398 399 399 400 401 401 401 401 402 401 401 401 401 401 401 401 400 400 399 399 398 397 397 396 395 394 393 392 391 390 388 387 386 385 383 382 380 378 377 375 372 370 368 365 362 359 356 352 349 346 344 342 341 340 338 337 335 334 333 332 331 329 328 327 326 325 324 323 323 322 322 321 321 321 321 321 322 322 325 328 331 334 337 340 343 345 348 349 351 352 352 353 352 351 350 348 347 346 345 344 344 342 342 342 342 342 342 342 343 343 344 344 345 345 346 347 348 349 350 351 351 352 352 353 353 354 354 355 355 356 357 357 358 358 358 358 358 358 358 357 357 356 355 354 354 353 354 355 356 357 359 360 361 361 362 363 364 365 367 368 369 369 370 371 372 373 374 375 376 377 378 379 380 381 383 384 385 386 387 388 390 391 392 393 395 396 397 398 399 400 401 402 403 405 407 408 409 411 413 414 414 415 416 416 417 417 418 418 419 419 420 420 420 420 420 420 421 421 421 421 421 421 421 421 421 421 421 421 421 422 422 423 423 424 424 424 425 425 425 425 425 425 425 426 426 426 426 426 426 426 426 426 426 426 426 426 425 425 424 424 423 423 422 421 420 419 418 417 416 416 415 414 413 412 412 411 411 410 410 410 410 410 410 411 411 411 412 412 412 412 412 412 412 413 414 414 415 415 416 416 417 417 418 419 419 420 420 421 422 423 423 424 425 425 425 425 424 424 424 423 423 423 423 424 424 425 426 427 428 430 432 434 435 437 438 438 439 439 439 439 439 439 439 439 439 439 439 438 438 438 437 435 435 436 435 434 434 433 433 433 433 432 434 437 439 439 439 439 439 438 437 435 432 428 426 425 424
412 412 412 412 413 413 413 413 413 414 414 414 415 415 415 416 416 416 416 417 417 417 417 418 418 418 418 418 418 418 418 417 417 417 416 416 416 415 415 414 414 413 413 413 412 412 411 411 410 410 409 409 409 408 409 409 409 409 409 409 409 410 410 410 410 410 411 411 410 410 410 410 410 409 409 408 407 407 406 406 405 404 404 403 402 402 401 400 399 399 398 397 397 396 395 395 394 393 393 392 391 391 390 389 389 388 387 387 386 386 385 385 384 383 382 381 381 381 381 382 382 382 382 383 383 383 383 383 384 384 384 385 385 385 386 386 386 387 387 387 387 387 387 387 387 386 386 386 385 384 382 380 376 371 366 362 358 354 350 347 344 341 338 335 333 333 332 332 332 332 332 332 332 332 332 333 334 336 337 339 340 341 341 342 342 341 340 340 340 340 340 341 341 342 343 344 345 346 348 349 350 351 351 351 352 353 356 359 363 368 372 376 379 381 383 384 386 388 390 392 394 396 397 398 399 399 400 401 401 401 402 402 402 402 402 402 402 402 402 401 401 400 400 399 398 398 397 396 395 394 393 392 391 390 389 387 386 385 383 382 381 379 377 375 373 371 368 365 362 359 356 353 349 347 344 342 341 340 338 336 335 334 333 331 330 329 328 327 326 324 323 323 322 322 321 321 321 321 321 321 322 322 324 328 331 334 338 341 344 347 349 351 352 354 354 354 354 354 353 351 350 349 348 347 346 345 345 345 345 345 345 345 346 346 346 347 347 348 349 350 351 352 353 354 354 354 355 355 356 356 356 357 357 358 358 359 359 359 359 359 359 359 358 358 357 356 355 354 354 354 354 355 357 358 360 361 361 362 363 364 365 366 367 368 369 370 371 372 373 374 375 376 377 377 378 379 381 382 383 384 385 386 387 389 390 391 392 394 395 396 397 398 399 400 401 402 404 405 407 408 409 411 412 413 414 415 415 416 416 417 417 418 418 418 419 419 419 419 419 420 420 420 420 420 420 420 420 420 420 420 420 420 420 421 421 422 422 422 423 423 423 423 423 423 423 423 423 423 424 424 424 424 424 424 424 424 424 424 424 423 423 422 422 422 421 420 419 418 417 416 416 415 414 413 412 412 411 411 410 410 409 409 409 409 409 409 409 409 410 410 410 411 411 410 411 411 411 412 413 413 414 414 415 415 416 416 417 418 419 419 420 421 422 423 423 424 424 424 424 423 423 422 422 422 422 422 423 423 424 425 426 428 429 431 433 435 436 437 438 438 438 439 439 439 439 439 439 439 439 438 438 438 437 437 436 435 435 435 434 434 433 433 432 432 433 433 435 438 439 439 439 439 438 438 436 433 430 427 425 424 424
411 412 412 412 412 412 412 413 413 413 414 414 415 415 415 416 416 416 417 417 417 417 418 418 418 418 418 418 418 418 418 418 418 417 417 416 416 416 415 415 414 414 414 413 413 413 412 412 411 411 411 410 410 410 410 410 410 410 410 411 411 411 411 411 411 412 412 412 411 411 411 411 410 410 409 409 408 407 407 406 406 405 404 404 403 402 401 401 400 399 399 398 397 397 396 395 394 394 393 393 392 391 391 390 389 389 388 388 387 387 386 386 385 383 382 381 382 383 383 384 384 384 384 384 384 384 385 384 385 385 386 386 387 387 387 387 388 388 388 388 388 388 388 388 388 388 387 387 386 385 383 381 378 373 368 364 360 356 352 349 346 343 340 337 335 333 332 332 332 332 332 332 332 331 331 331 331 332 333 334 334 335 335 336 336 336 336 335 336 336 337 337 337 337 338 339 340 341 343 344 345 346 346 346 348 352 356 359 364 369 373 377 380 382 384 386 388 390 392 394 396 397 398 399 400 400 401 401 402 402 402 402 402 402 402 402 402 402 402 402 401 401 400 399 399 398 397 396 395 394 393 392 391 390 389 387 386 385 384 382 381 379 377 375 373 371 368 366 363 360 356 353 350 347 344 342 341 339 338 336 335 334 332 331 330 329 328 326 325 324 323 323 322 322 321 320 320 320 321 321 322 322 324 327 331 335 338 342 345 348 351 353 354 355 356 356 356 356 355 354 353 351 350 349 349 348 348 347 347 347 348 348 349 349 349 350 350 351 352 353 354 355 355 356 356 356 357 357 358 358 358 359 359 359 359 359 359 360 360 360 359 359 358 358 357 356 355 355 354 354 355 356 358 359 360 361 362 363 364 365 366 367 368 369 370 370 371 372 373 374 375 376 377 378 379 380 381 382 383 384 386 387 388 389 390 391 393 394 395 396 397 398 399 400 401 402 404 405 406 408 410 411 412 412 413 414 414 415 415 416 417 417 417 418 418 418 418 419 419 419 419 419 419 419 419 419 419 419 419 419 419 419 420 420 420 421 421 421 421 421 421 421 422 422 422 422 422 422 422 422 422 422 422 422 422 422 422 422 421 421 421 420 420 419 418 417 416 416 415 414 413 413 412 411 410 410 410 409 409 409 408 408 408 408 408 408 408 408 408 409 409 409 409 409 410 410 410 411 412 412 413 413 414 414 415 416 417 417 418 419 420 421 422 423 423 423 423 422 422 421 420 420 421 421 421 422 422 423 424 425 427 429 431 433 434 435 436 437 437 438 438 438 438 438 438 438 438 438 438 438 438 437 437 436 435 435 434 434 434 433 432 432 432 431 433 435 437 438 439 439 438 438 437 436 434 431 428 425 424 423 423
411 411 411 411 411 412 412 412 413 413 414 414 415 415 415 416 416 417 417 417 417 418 418 418 418 419 419 419 419 419 418 418 418 417 417 417 417 416 416 416 415 415 414 414 414 413 413 413 412 412 412 411 411 411 411 411 412 412 412 412 412 412 412 412 412 413 413 412 412 412 412 411 411 410 410 409 409 408 408 407 406 406 405 404 404 403 402 401 400 400 399 399 398 397 396 395 395 394 394 393 392 392 391 391 390 389 389 388 388 387 386 387 386 384 383 383 384 384 385 385 385 385 385 385 385 386 386 386 386 387 387 388 388 388 388 389 389 389 389 389 389 389 389 389 389 389 388 388 387 386 385 383 380 375 371 366 362 358 354 351 348 345 343 340 337 335 333 333 332 332 332 331 331 331 331 330 330 330 331 331 331 332 332 332 332 332 332 332 333 333 334 334 334 334 334 335 336 337 338 340 341 342 343 344 347 351 355 360 365 370 374 378 381 383 385 387 390 392 394 396 397 398 399 400 400 401 401 402 402 402 402 403 403 403 403 403 403 403 402 402 401 401 400 399 399 398 397 396 395 395 394 393 391 390 389 388 386 385 384 383 381 379 378 376 374 372 369 366 363 360 357 354 350 347 345 343 341 340 338 336 335 333 332 331 329 328 327 326 325 323 323 322 322 321 320 320 320 320 320 321 322 322 325 328 332 336 340 344 347 350 353 355 356 357 357 358 358 358 357 356 355 354 353 352 351 351 350 350 350 350 350 351 351 351 352 352 352 353 354 355 355 356 357 357 358 358 359 359 359 360 360 360 360 360 360 360 360 360 360 360 360 359 359 358 357 356 356 355 355 355 356 357 359 360 361 362 363 364 365 366 367 368 369 369 370 371 372 373 374 375 376 377 378 379 380 381 382 383 384 385 386 387 388 389 391 392 393 394 395 396 397 399 400 400 402 403 404 405 407 408 409 410 411 412 413 413 414 414 415 416 416 416 417 417 417 418 418 418 418 418 418 418 418 418 418 418 418 417 417 418 418 418 418 419 419 419 419 419 419 419 419 419 419 419 420 420 420 420 420 420 420 420 420 420 420 420 420 420 419 419 419 418 417 417 416 415 414 413 413 412 411 411 410 409 409 408 408 408 408 407 407 407 407 407 407 407 407 407 407 407 408 408 408 408 408 409 409 410 411 411 412 412 413 414 415 415 416 417 418 418 419 420 421 421 421 421 420 420 419 419 419 419 420 420 421 421 422 423 425 427 428 430 432 434 435 436 436 437 437 437 438 438 438 438 438 438 438 438 438 437 437 437 436 434 434 434 434 434 433 432 432 432 432 432 434 437 438 438 438 438 438 437 436 435 432 428 426 424 423 422 422
410 411 411 411 411 411 412 412 413 413 414 414 415 415 415 416 416 417 417 417 418 418 418 418 418 419 419 419 419 419 419 418 418 418 418 417 417 417 416 416 416 416 415 415 415 414 414 414 413 413 413 413 413 413 413 413 413 413 413 413 413 413 413 413 413 413 413 413 413 413 413 412 412 411 411 410 409 409 408 408 407 406 406 405 404 403 403 402 401 400 400 399 398 398 397 396 395 394 393 393 393 392 392 391 391 390 389 389 388 386 386 387 387 387 387 387 386 385 385 386 386 387 387 387 387 387 387 387 388 388 389 389 389 389 389 390 390 390 390 390 390 390 390 390 390 390 390 389 388 387 386 384 382 378 374 369 365 361 357 353 350 347 345 342 340 338 336 334 333 332 332 331 331 331 331 331 331 330 330 330 330 330 330 330 330 330 330 330 330 330 330 330 330 330 330 331 332 333 334 336 337 338 340 342 346 350 355 360 365 370 375 379 382 385 387 389 392 394 396 398 399 399 400 401 401 402 402 402 403 403 403 403 403 403 403 403 403 403 402 402 401 401 400 399 399 398 397 396 396 395 394 393 392 390 389 388 387 385 384 383 381 380 378 376 374 372 370 367 365 362 358 355 352 348 345 343 341 340 338 336 334 333 332 330 329 328 327 326 324 323 322 322 321 320 320 320 320 320 320 321 321 322 325 330 334 338 342 346 349 352 354 356 357 358 359 359 359 359 359 358 357 357 356 355 354 354 353 353 352 352 352 353 353 353 353 353 354 354 355 355 356 357 357 358 359 359 360 360 361 361 361 361 361 361 361 361 361 361 361 360 360 360 359 358 358 357 356 356 356 356 357 358 359 360 361 363 364 365 366 367 367 368 369 370 371 371 372 373 374 375 376 377 378 379 380 381 382 383 384 385 387 388 389 390 391 392 393 394 395 396 398 399 400 401 402 403 405 406 407 408 409 410 411 412 412 413 413 414 414 415 416 416 416 416 417 417 417 417 417 417 417 417 417 418 417 417 416 416 416 416 416 416 417 417 417 417 417 417 417 417 417 417 417 417 417 417 417 417 417 418 418 418 418 418 418 418 418 418 418 417 417 416 415 415 414 413 412 411 411 410 409 409 408 408 408 407 407 407 406 406 406 406 406 406 406 406 406 406 406 406 406 407 407 407 407 408 408 409 410 410 411 412 412 413 414 415 416 416 417 418 419 419 419 419 418 418 417 417 417 418 418 419 419 420 420 421 423 424 426 428 430 432 433 434 435 435 436 436 437 437 437 437 437 437 437 437 437 437 437 437 437 436 435 433 433 434 434 433 432 432 432 431 432 433 435 437 438 438 438 438 437 437 435 433 430 426 424 423 422 422 422
410 410 410 410 411 411 412 412 413 413 414 414 415 415 415 416 416 417 417 417 418 418 418 418 419 419 419 419 419 419 419 419 418 418 418 418 418 417 417 417 417 416 416 416 415 415 415 415 414 414 414 414 414 414 414 414 414 414 414 414 414 414 414 414 414 414 414 414 414 414 413 413 412 412 411 411 410 409 409 408 407 407 406 405 405 404 403 402 402 401 400 399 399 398 397 396 395 394 394 393 393 392 392 391 391 390 389 389 388 387 387 388 388 388 388 388 387 386 386 387 387 388 388 388 388 388 388 389 389 389 390 390 390 390 391 391 391 391 391 391 391 391 391 391 391 391 391 390 389 389 387 386 383 380 376 371 367 363 359 356 353 350 347 345 343 341 339 337 335 334 333 333 332 332 332 332 331 331 331 330 330 330 329 329 329 329 329 329 329 329 329 329 329 328 328 329 329 330 331 332 334 335 337 340 344 349 355 360 366 371 376 380 384 387 389 392 394 397 398 399 400 400 401 401 402 402 402 403 403 403 403 403 403 403 403 403 403 403 402 402 401 401 400 399 399 398 397 396 396 395 394 393 392 391 389 388 387 386 384 383 382 380 378 377 375 373 371 368 366 363 360 357 353 350 347 344 342 340 338 336 334 333 331 330 329 327 326 325 324 323 322 322 321 320 320 320 320 320 320 321 322 323 327 332 336 340 344 348 351 354 356 358 359 360 360 361 361 361 361 360 360 359 359 358 357 357 356 356 356 355 355 355 355 355 356 356 356 356 357 357 358 358 359 359 360 360 361 361 361 361 361 361 361 361 361 361 361 361 361 361 360 360 359 359 358 357 356 356 356 356 358 359 360 361 362 363 364 365 366 367 368 369 370 370 371 372 373 374 375 376 377 378 379 380 381 382 383 384 385 386 387 388 389 390 391 393 394 395 396 397 398 399 400 401 402 403 405 406 407 408 409 410 411 411 412 413 413 413 414 415 415 415 415 416 416 416 416 416 416 416 416 416 416 416 416 416 415 415 415 415 415 415 415 415 415 415 415 414 414 414 415 415 415 415 415 415 415 415 415 415 415 416 416 416 416 416 416 416 415 415 415 414 413 412 412 411 410 410 409 408 408 407 407 407 406 406 406 405 405 405 405 405 404 404 404 404 404 404 404 404 405 406 406 406 406 407 407 408 409 409 410 411 412 413 414 414 415 415 416 416 417 417 416 416 415 415 415 415 416 417 417 418 419 420 421 422 424 426 428 430 431 432 433 434 435 435 436 436 436 437 437 437 437 437 437 437 437 437 437 437 436 436 434 432 432 433 433 433 432 431 431 431 433 435 436 437 438 438 438 437 436 436 434 431 428 425 423 422 422 421 421
