ncols         396
nrows         27
xllcorner     328552.38261
yllcorner     4565135.65276
cellsize      20
NODATA_value  -9999
742.5616 744.9422 744.6155 736.3333 736.2567 721.4761 713.025 702.4822 689.9464 675.4858 662.2989 650.2478 635.6042 624.1439 617.2903 607.6666 585.493 578.5689 577.91 578.6581 577.3353 570.9883 579.1456 587.4578 597.4058 599.5303 603.9897 612.26 622.8317 628.6147 628.125 627.7839 625.6697 620.2017 613.1281 615.947 621.8275 626.7303 620.1406 608.7767 597.3281 584.9438 573.9417 563.6172 553.8234 547.1509 538.8909 534.7775 526.7966 515.5075 519.3367 528.5867 534.0645 538.0122 541.5834 543.3544 543.0697 540.2867 535.4439 528.845 522.5358 521.392 526.5422 528.5083 529.0508 531.0897 528.9475 522.6345 516.5361 509.3958 502.7805 497.0136 491.3442 488.7317 492.7936 498.3125 505.1633 513.0722 519.9341 524.985 528.9711 529.4183 527.5933 524.5478 521.3217 516.2858 509.8764 501.8116 492.2192 484.0905 479.4208 482.4706 490.7331 494.5367 496.4667 499.4605 504.9925 515.305 526.8322 538.0367 544.3259 547.8687 549.9708 551.0314 551.4603 551.775 551.33 549.0645 544.1417 538.0994 533.0636 528.1891 523.83 519.6331 516.915 515.3553 513.9386 512.7692 511.7831 511.1458 512.515 514.1202 515.2056 516.8125 517.7861 517.2308 515.7358 512.1214 509.1383 509.1133 509.1897 508.75 506.7283 503.0372 498.5869 496.4567 496.1528 494.7983 496.79 507.0636 517.945 529.0033 542.4075 549.5433 549.3067 541.5297 535.7931 531.2484 523.7897 515.332 509.4417 511.3445 513.8711 515.6292 513.7358 509.1139 504.8475 507.37 517.165 525.8667 532.6628 538.9086 543.5733 545.8367 544.7427 541.8442 536.5789 531.9558 529.8666 526.7358 525.3494 525.73 525.7634 527.0231 532.2683 535.6386 531.2783 520.185 509.868 505.1422 507.1508 511.9581 512.8422 508.29 501.0031 495.0669 489.3542 483.6219 477.8453 470.17 461.985 453.722 446.2191 436.4497 425.6969 417.0917 406.9308 405.843 408.6825 408.8386 417.3242 429.0267 433.782 436.5711 437.5717 438.4972 439.187 441.1142 445.1539 445.7431 445.2158 444.8525 444.0636 440.4633 436.8853 436.8936 439.3442 440.7614 441.7669 442.9567 442.7089 437.855 432.1933 433.6817 434.442 434.5075 434.9647 435.8025 437.1275 436.5553 437.7631 440.2058 443.2556 444.1692 443.9075 440.7444 438.1622 436.0117 433.6056 431.6411 429.9942 428.8458 428.0503 427.9183 428.3711 428.4406 426.9533 427.1175 428.8025 429.2133 429.5436 430.4139 431.4167 432.3278 432.1694 432.3258 431.9225 430.4317 429.7792 428.4586 429.1353 429.745 430.4894 430.9675 429.9958 428.4103 427.502 427.8083 430.0328 432.1083 434.4317 437.3592 441.1083 440.73 436.9003 433.0605 429.36 426.0983 424.2556 422.6583 421.343 420.5722 421.0208 420.9305 418.7 416.2333 413.5444 411.0194 407.9417 404.6694 401.8639 398.9333 397.8778 398.3833 399.975 401.0111 401.0305 400.2667 397.35 394.8055 392.8 391.0305 389.175 387.5833 386.1167 384.6472 383.2917 381.3389 378.8528 376.9833 373.7111 373.8195 375.2833 375.3583 374.3445 373.6 373.0917 371.975 371.6833 371.2667 370.3944 369.75 369.3972 369.275 368.7167 367.7 366.4833 364.15 361.4833 356.5667 349.8083 343.175 337.7056 333.0333 330.375 337.0528 341.3083 341.7444 341.8194 342.5083 342.9194 344.3194 345.7083 346.5556 347.0028 347.6167 348.8 350.1972 351.2917 352.2889 353.2055 350.925 349.5194 353.8 355.9167 359.8806 363.5667 366.425 370.7556 374.9305 378.275 381.7861 385.0917 387.2667 387.5528 386.0861 384.3917 382.4194 381.5833 381.3333 381.5833 382.2667 382.8667 383.3556 384.3861 388.0083 390.7972 393.7389 395.475 395.0028 390.5334 395.225 398.7361 401.7195 406.7083 415.2111 421.4 424.1 427.4806 431.4611 436.675 443.5555 442.7222 438.3083 434.2556 427.3528
727.58 725.2742 723.3183 722.2475 718.9308 713.3117 706.0975 696.6042 684.2833 671.765 660.455 649.7316 636.9 624.0975 616.7833 602.84 582.2092 572.675 567.6525 564.3967 560.6875 557.4375 557.1292 569.9008 582.13 585.7342 593.6967 601.4925 610.7842 618.8425 616.07 618.3017 621.8558 614.04 604.4575 607.1858 615.3475 623.9592 624.1666 613.745 603.4316 591.4642 579.8125 570.9233 563.44 557.65 550.6683 540.6025 529.22 518.9958 512.9217 519.3975 524.3983 529.6542 533.8075 536.3942 536.0808 532.8475 528.4434 522.1008 516.115 515.2084 520.8041 521.3575 522.215 524.3583 523.385 518.12 512.4083 506.6125 500.6042 495.1458 489.5275 485.1925 490.3708 496.1425 503.0517 509.8883 515.3625 519.4492 522.6266 524.41 523.7516 521.8834 518.895 513.4984 506.8008 498.79 490.1667 482.8717 477.125 479.9533 485.7758 488.9025 491.6125 496.0417 502.2525 514.2467 525.0067 535 541.0809 542.9983 543.685 544.3842 544.925 546.0725 544.2866 540.6891 536.6 533.1067 529.1817 525.6725 522.7133 519.1542 515.8775 513.53 510.9892 509.67 508.2883 507.3142 508.5875 511.4192 512 512.1575 513.1067 512.4233 509.46 506.2217 504.0675 503.9875 504.7075 505.6859 505.7525 502.6858 496.74 492.7525 492.7067 492.1308 495.24 505.8992 516.93 527.715 537.2 541.2534 540.085 535.5458 531.1816 526.7075 521.5167 514.1766 506.505 505.8417 507.5517 508.2375 507.8858 505.5258 500.84 504.4125 512.2367 519.83 526.4359 532.9142 536.3275 538.4658 541.0667 543.1725 542.6033 539.3983 538.035 537.5967 536.6259 535.28 534.155 532.8492 534.15 536.4425 535.01 527.095 520.1508 516.9225 517.5275 519.3367 517.6375 510.2425 501.7808 495.37 490.1475 485.3792 480.0616 473.1125 466.7175 459.5383 450.22 440.2517 428.7308 419.875 413.4442 406.1867 403.7325 413.47 424.5675 428.9 432.1408 433.72 435.6075 437.8408 439.0058 440.535 443.6183 444.6725 444.2425 443.5458 441.4308 437.2525 432.4783 433.4908 436.855 440.0983 443.6083 444.67 441.8233 436.0316 430.5275 430.14 431.2892 431.795 432.805 434.3308 435.6275 435.2408 434.4167 437.87 440.8733 444.4142 445.99 441.6783 438.2542 435.2175 432.86 430.9133 429.545 427.785 426.0275 425.575 426.0016 426.3383 425.785 424.1025 425.5167 426.555 427.435 428.3042 428.5175 428.7225 428.7117 428.7175 428.8192 427.8633 426.9475 426.2942 426.9292 427.5175 428.185 428.5934 427.6575 426.28 424.7058 423.8675 425.1458 427.6867 430.9025 434.46 438.6825 438.94 434.6642 430.8392 428.375 426.4983 425.0225 423.4925 422.5042 421.7392 422.405 423.125 421.3083 419.15 416.2833 413.375 410.225 406.825 403.725 401.15 398.7 396.2083 396.675 398.975 399.8167 397.85 394.8 392.95 391.35 389.7917 388.3417 387.05 385.675 384.275 382.85 381.3 379.975 378.575 377.3 372.3 370.725 371.7333 371.775 372.525 371.9833 371.4917 371.425 370.6917 369.4917 368.5 368.1333 367.725 366.975 365.8917 364.6417 362.625 360.65 357.0167 351.625 342.6917 336.9167 332.25 330.625 337.9333 340.75 340.8167 340.7583 341.225 341.9 343.0917 344.55 345.7167 346.5417 347.35 348.5333 349.85 350.6 350.5167 348.4583 348.625 352.9583 357.5583 360.375 362.2333 365.5167 369.375 374.15 378.2917 380.475 382.075 381.6 381.15 380.7417 379.9917 379.425 379.275 379.1417 379.15 379.3667 379.875 381.15 382.0083 383.1667 385.9 387.1333 388.65 390.325 391.0417 388.2917 393.25 397.7917 402.6083 409.475 418.0083 425.4 429.35 432.0083 435.7417 441.85 449 446.325 440 434.675 427.9333
717.74 715.9186 714.8461 711.9534 708.0439 702 696.1033 687.1219 675.9203 666.415 657.2264 645.6531 632.3875 621.3303 614.7722 594.2425 576.3461 564.8381 556.02 551.9603 545.7369 543.02 542.4878 554.8508 565.0667 569.9672 581.5994 590.5541 604.7894 606.7245 604.1317 612.0027 611.5281 604.945 595.7745 598.7733 607.5342 617.2908 623.7595 618.6675 609.3075 599.3442 589.7958 581.0739 572.1386 561.7283 551.4597 540.1664 529.8808 522.0814 509.3969 509.5542 514.1655 520.9419 524.8192 528.1964 528.985 526.4958 521.0442 514.1692 508.3775 508.8428 515.8439 515.1608 515.7319 517.3492 517.9683 515.3903 511.1194 505.2042 499.7139 494.1808 487.8483 482.602 488.5341 493.1975 499.8525 505.2281 509.72 512.5814 515.6155 519.2975 519.7433 517.3453 514.8058 510.4053 503.9294 496.9142 489.1947 480.7708 474.4625 477.4736 482.1881 485.56 489.2847 494.9894 501.7417 512.4258 522.4797 531.2592 536.5178 537.2142 537.1825 537.6273 537.8467 537.9658 535.9086 533.2722 529.9042 526.6736 524.4039 522.5808 520.6967 517.7253 514.7025 510.9492 507.9439 505.7833 504.9047 504.1367 505.5642 508.2958 507.9153 507.7817 509.58 509.0519 504.1258 500.9636 499.0842 499.2658 501.2308 503.3147 504.2142 501.8289 496.257 490.5108 487.9814 487.7231 493.1567 502.3736 512.9192 521.785 528.6078 531.9661 531.7383 529.2675 526.2022 522.1791 516.9978 510.688 504.9059 500.7083 501.5905 502.3292 503.2831 503.3322 497.0617 499.5328 506.1417 512.8642 519.1561 524.3836 526.8192 528.5645 531.8184 536.8842 543.0917 545.7144 545.7117 546.2673 542.5106 538.3383 533.5592 529.6545 528.7567 530.1339 533.3736 530.9675 527.7267 525.45 524.4792 523.9514 517.4147 508.1783 498.2656 489.2841 482.1492 477.685 473.8836 468.5883 462.7583 456.7103 448.8417 440.2661 429.7036 420.6958 414.9269 409.7636 403.8492 406.7583 419.2567 424.5483 429.7358 434.3689 437.2975 439.1595 439.9247 440.7184 442.6119 443.1867 442.4525 441.2086 437.6314 433.6542 430.6575 431.8825 434.4742 437.2394 445.183 443.9833 440.0711 434.5972 428.87 427.8164 428.1683 429.3158 430.8717 432.8411 434.4567 432.4153 431.0133 435.755 440.3508 445.6203 444.0642 441.0997 438.4975 435.54 432.8283 430.3842 428.5958 427.0603 425.4047 424.1817 423.5905 423.9431 423.8833 421.5111 423.06 424.43 425.4944 426.3958 426.3392 426.2464 425.1817 424.6425 424.7436 424.0533 423.895 424.7492 424.7147 424.9358 425.9375 426.6692 425.7108 424.2955 422.4 420.7392 420.6436 423.0456 427.1275 431.6497 436.4955 436.7417 431.8378 428.0622 425.6942 424.6525 423.9589 423.0933 422.1333 421.5284 421.5933 422.1667 422.6111 421.3167 418.4806 415.3833 412.4667 408.9666 405.85 403.575 401.2722 397.6306 393.5833 394.2444 395.4639 393.5167 392.1805 390.9972 389.775 388.4695 387.6611 386.6833 385.5528 384.3611 383.2417 381.9833 380.6805 379.4167 378.1389 376.0167 371.5833 367.9417 369.525 371.325 371.0694 370.9667 370.875 370.6167 369.6583 368.3333 366.7167 366.1056 365.2333 364.0833 362.7306 360.975 359.3583 357.3 354.4833 347.5833 336.725 330.2167 333.75 339.3556 339.9 339.5972 339.5444 340.3167 340.8806 342.0028 343.35 344.5167 345.6778 346.75 348.0722 349.4056 349.9083 348.5639 345.5028 351.5333 356.8278 360.0945 362.4167 364.5167 366.7722 369.1583 372.3222 374.5695 375.425 376.4055 376.4 376.2 376.3055 376.3 376.2917 376.5611 376.8667 377.1333 377.2472 377.5389 379.0167 380.05 381.1555 383.5 384.7195 385.2972 385.8 386.3861 388.6472 393.3583 398.5555 404.0389 411.3667 418.1667 425.3167 431.1833 435.3833 440.0917 445.4 451.3333 448.5667 441.8167 435.2472 429
710.29 708.4312 706.9467 703.2025 695.2806 689.327 681.6716 674.9622 668.4425 659.64 649.8972 634.6914 624.1317 617.5942 610.0714 584.6708 569.205 552.2245 543.5983 539.2181 534.0045 531.1192 531.777 542.0761 546.7258 545.5186 555.2219 576.075 595.3809 594.8336 595.195 606.6717 602.4731 594.1575 585.1906 590.0231 599.5058 609.4984 616.6744 616.2733 611.0652 604.0269 594.1141 582.5764 570.3292 559.54 549.8356 539.3134 529.9925 520.6981 509.8258 504.075 505.1533 511.3042 516.64 520.7466 521.6525 519.6942 514.4039 507.6081 501.3675 503.9714 507.8925 508.68 510.6536 511.6189 513.3408 513.2614 510.3256 505.0458 500.3508 494.993 486.1167 480.2625 483.9531 489.2875 493.6025 497.9061 501.9467 505.1511 508.6378 512.6583 514.4997 511.7717 508.29 505.2056 500.2269 493.7058 486.2417 477.0233 471.8908 476.3597 479.5142 482.9067 488.0909 495.2247 501.5308 511.0592 520.7419 527.2042 530.7289 530.8069 529.8091 529.0753 528.9586 529.1525 528.4977 527.1742 524.3925 521.6469 521.3508 520.1783 518.2725 514.3177 511.43 508.4922 505.3983 502.0675 501.1783 500.7439 502.71 504.515 503.5714 502.4583 503.4869 502.4756 498.9117 496.2061 495.0422 496.8033 500.6631 504.0467 503.2183 499.4914 494.5645 488.8658 484.4519 484.7505 491.5142 500.0181 508.4589 515.7858 520.6489 523.3467 523.5792 521.7283 520.6353 517.6342 513.4233 508.2725 502.8425 498.8319 495.9022 495.1408 494.5558 496.0411 493.5108 494.2097 499.7033 506.1483 511.8142 515.5814 517.3125 519.7117 522.6108 528.7458 536.1392 543.5086 544.365 542.8784 539.2925 533.4617 527.3864 522.9528 521.02 523.6858 528.8447 531.0725 529.1281 525.0058 522.6692 520.7686 515.5739 506.9492 497.8981 488.2828 477.0525 469.1278 465.1214 459.7517 453.6139 448.5125 443.8342 437.1558 429.2369 420.845 415.7225 410.6886 405.5108 402.2067 414.8145 421.6425 428.922 435.9661 441.8725 441.5025 441.0108 441.2608 442.2011 441.7834 440.8383 438.2295 434.1889 431.8542 430.5222 430.1675 432.3758 435.6606 439.1092 437.6542 434.1797 430.4236 427.425 425.757 426.5636 427.5842 429.1811 431.1794 432.0467 430.5333 428.775 433.6992 440.0692 442.2908 440.3208 438.1994 436.6464 434.5175 431.9692 429.7444 428.5609 427.9772 426.6253 424.3867 422.2883 421.1964 421.2892 420.8028 421.0447 422.1742 423.412 424.1397 424.1792 423.4395 421.9808 421.1408 421.7314 421.5347 422.2816 423.5911 423.5833 423.4542 424.0347 424.2705 423.2725 421.5925 419.9586 418.3867 417.8286 418.6103 423.1208 427.6008 431.5422 432.9283 429.3686 425.3836 423.4258 421.1278 420.0672 419.515 418.0392 417.1825 417.4892 418.9055 420.5805 421.4917 419.5833 417.6278 414.8917 411.2944 407.8361 404.95 402.8833 398.1722 393.4 390.3778 390.5334 390.55 389.8167 388.925 388.0417 387.5333 386.9889 386.0833 385.2333 384.0972 382.975 381.95 381.1111 380.0083 379.4333 378.7111 374.0583 367.6833 367.7111 370.125 370.2055 370.1694 370.3333 371.2889 371.0583 369.3167 366.1722 363.85 362.4917 361.6194 360.7583 359.4 358.1389 356.8861 354.9583 346.8361 334.0555 329.4583 335.2361 338.2167 339.1167 338.5583 338.4861 339.4333 340.1306 341.3917 342.5417 343.7195 344.9528 346.1 346.8306 348.0694 346.85 344.1444 347.1167 353.325 356.4639 358.4028 360.2833 362.1222 363.7 365.625 368.2722 369.9139 371.0667 371.7333 372.3444 372.7167 373.1028 373.3972 373.775 374.1667 374.6694 375.4667 376.5139 377.1 377.5833 378.3167 379.6972 381.5917 383.0556 384.3361 385.7917 388.6778 392.95 396.85 400.6111 405.3139 411.5583 418.0111 424.4472 430.475 435.9333 441.1194 446.55 452.5361 450.2611 443.7083 436.85 430.4194
701.3775 698.335 696.9242 691.8675 679.6692 672.8792 667.925 665.275 660.9592 653.5925 640.83 628.17 619.2825 612.1617 595.8542 578.2525 561.5883 541.2733 533.4425 532.0784 529.1925 521.2075 521.5267 525.1083 525.4925 525.4142 535.6725 565.9225 586.5975 581.5408 588.4675 601.7567 595.5809 585.3825 577.8466 583.775 593.39 603.5425 607.2858 607.1975 604.7842 602.76 594.3175 582.0125 569.8317 559.3625 550.5308 542.7933 533.6625 522.8691 513.2183 504.15 499.8692 503.3092 508.6825 512.1433 513.6058 512.6425 509.4375 502.8333 495.1 498.125 499.8108 502.59 504.9567 507.5725 509.8875 510.2942 508.335 504.1925 500.0333 493.7308 484.24 479.1617 480.1541 482.68 485.7892 489.6325 493.5 497.0217 501.2608 504.89 507.765 505.0909 501.5125 498.8175 495.4633 489.83 481.1925 473.2758 469.545 475.1725 477.3817 480.2675 486.4742 494.2767 501.885 509.71 518.1175 522.875 524.0992 523.205 521.3475 520.8858 521.2692 522.0925 522.5034 522.1742 520.1575 517.9825 517.6934 517.51 515.2558 511.1975 507.795 505.2258 502.5033 499.465 498.2642 498.4525 499.36 500.98 499.9567 498.655 497.9283 496.9758 494.455 492.0258 491.7017 496.0075 501.4925 505.8983 502.6475 497.1883 491.9767 486.2875 481.7275 482.8817 489.44 496.4233 502.8858 508.645 512.9459 514.9866 515.1475 514.925 514.4392 512.745 509.4925 504.4108 499.2475 497.0634 494.2417 490.9525 491.1342 491.29 488.74 489.0733 495.2433 501.3625 504.8358 506.6383 508.7775 512.0667 516.2266 521.5525 528.895 535.3067 536.035 535.0925 532.615 526.9175 520.0867 514.4633 513.415 517.6708 524.09 528.745 527.1667 520.7008 515.59 513.2125 511.7742 506.77 498.5575 489.05 477.1075 466.4317 459.0992 453.1175 447.3817 443.0267 438.695 434.63 429.7533 422.11 417.6125 412.9125 406.415 400.1842 408.3567 420.395 427.55 435.6433 444.1575 448.7717 446.0692 443.835 442.4217 440.5442 439.01 436.4092 434.8708 432.2675 429.61 426.1042 428.2 432.5542 432.2083 430.4625 428.2292 425.3033 423.8525 423.9808 425.265 426.715 428.3692 430.265 430.455 428.3367 427.31 432.96 438.4392 438.555 436.095 434.5058 433.2967 432.0025 429.975 427.455 425.735 425.2358 426.1075 425.7775 423.0392 419.315 418.8075 419.2417 418.5725 419.755 421 421.4667 421.975 420.8542 419.2625 418.4425 418.9142 420.03 421.285 422.1983 422.0842 421.7725 421.39 421.1075 420.1325 418.4992 416.6992 415.2725 414.6458 414.4308 418.815 423.2367 426.275 428.535 427.3825 424.0817 421.25 418.2017 416.6433 415.57 414.2175 413.325 413.9625 415.5417 417.025 417.975 418.3833 418.6667 417.2 414.15 410.1833 404.9 401.3667 397.5167 393.225 389.6 389.075 389.125 388.0917 387.0083 386.55 386.4667 386.0667 385.35 384.6333 383.7167 382.65 381.7083 381.0083 380.35 379.9833 379.2 374.475 367.7083 366.3083 368.025 368.7417 368.3417 368.95 370.4333 369.9083 366.9 364.2667 362.1 360.7 359.675 358.8333 358 357.5833 355.925 350.825 341.1 331.225 329.7 334.5083 336.6917 337.55 337.2833 337.5 338.5 339.25 340.625 341.675 342.85 344.1667 345.3 345.8917 344.525 342.3 346.325 349.9833 351.6 353.4667 355.35 357.325 359.2167 361.0167 362.875 365.15 366.7167 367.775 368.4167 369.0083 370 371.0333 371.3833 371.65 372 372.4667 373.95 375.475 376.0417 376.9 378.3 379.425 383.525 387.125 388.775 390.575 393.9167 397.45 400.875 403.6333 407.8833 413.3 418.0083 423.625 429.5 435 440.2 445.35 450.0417 450.4417 444.775 437.9833 431.725
684.9567 680.425 679.21 673.1075 664.0661 656.8675 653.6658 653.9323 653.3689 650.0408 637.1322 624.0125 616.5917 604.9111 583.0397 568.4925 551.6216 526.7347 523.395 521.715 520.6875 518.4459 516.707 516.3364 511.4092 513.525 524.5605 564.0242 574.8711 572.8273 587.4192 596.9264 589.5872 578.7617 571.0792 578.252 586.7658 595.0881 598.3834 597.0758 594.8906 597.0125 595.6292 585.3195 572.5994 564.3475 557.5011 551.3608 541.0742 529.4083 517.9427 507.9667 497.8128 497.2433 502.3333 504.7511 505.4022 505.345 504.6017 499.4392 490.97 488.2633 491.5694 497.0292 501.6306 503.7997 504.3842 504.5297 504.7125 502.8975 497.9714 491.2589 482.0425 477.0247 476.8997 478.96 481.8522 485.2353 488.8408 491.3478 495.0103 497.405 499.4775 498.9378 496.4767 493.9544 492.6247 488.0292 476.5211 466.1769 468.8283 473.6714 475.3214 477.62 484.6436 491.0189 500.2433 509.0817 516.1069 520.1042 520.618 518.2586 514.7067 512.9186 513.2658 515.3741 517.0686 517.1839 516.1808 514.7694 514.3691 514.6791 512.4003 508.0772 504.585 502.2053 499.8014 497.7167 495.8375 495.032 496.8058 496.9783 496.8141 496.085 494.3989 492.9233 490.2817 487.0622 488.1958 496.0658 502.5428 502.8569 498.6892 494.0033 489.4569 483.5634 478.3169 480.9531 486.6658 492.6481 496.9683 500.9875 504.4567 505.5975 507.045 508.0036 507.2042 505.3392 503.3103 499.8214 497.0817 495.4086 492.4228 488.1892 487.7486 487.725 485.6817 486.0439 494.4653 496.21 497.22 499.0328 502.105 505.7397 510.1369 516.0883 522.0231 526.12 527.405 526.9067 524.8556 520.6066 513.9327 507.5961 506.535 511.9767 518.7492 524.7758 525.0289 518.3861 509.9608 504.6842 504.437 503.9283 498.3114 489.1144 477.5792 466.3203 459.1742 452.6958 448.63 445.4908 442.4142 437.8708 432.9197 426.6625 420.7053 415.8419 409.8858 401.0478 403.0183 417.2183 423.7072 432.3539 443.0133 452.8019 453.4053 446.68 441.5311 439.5661 436.8817 434.8806 434.7944 431.8017 427.6492 423.0158 422.8825 425.0922 424.0061 421.8958 420.9411 420.4622 420.755 422.2367 424.1497 426.8708 429.3058 428.8478 427.6675 425.4386 424.8519 431.5458 435.2022 433.8789 432.14 431.2594 430.1164 428.8375 427.0392 424.8822 423.7675 423.0708 425.3397 427.8475 423.8497 418.8267 416.1383 415.5861 415.2308 417.39 418.2464 418.9117 419.4958 419.1356 417.6803 416.4233 416.34 419.1656 420.6217 420.6653 420.11 419.7159 419.0397 417.8958 416.8092 415.303 413.5675 411.4167 410.2547 412.4556 415.4842 419.2017 422.4925 425.0083 426.4019 423.1547 419.7408 416.3311 413.4903 411.6042 410.7847 410.4967 410.8983 411.9833 413.2195 414.5417 416.2111 417.525 418.175 416.7972 412.6695 406.6417 400.7944 396.9861 393.5083 390.3083 387.45 387.95 386.4778 385.1889 384.6417 384.7472 384.7417 384.3667 383.7972 383.3222 382.7417 382.0361 381.2805 380.65 379.7278 378.0778 374.6417 369.8861 367.6278 365.675 364.8889 363.3056 363.6083 366.05 364.5778 363.8167 362.3611 360.7111 359.45 358.5222 357.825 357.475 356.1945 352.9917 347.9 340.1 333.0195 328.775 330.7111 334.0694 335.4 335.8 336.5694 337.2333 337.4389 339.5528 340.6 341.8 343.2 344.5833 343.6333 339.8972 343.5417 347.7 348.8917 350.1667 351.4 353.2 355.2417 357.2972 359.3611 361.25 362.9028 364.45 365.5667 366.2667 366.7833 367.7417 368.6306 369.1333 369.3583 369.7361 370.3611 371.6833 373.4639 374.8445 376.6333 378.4222 381.0417 386.1667 389.3333 392.4639 396.4 400.6 402.5889 404.025 406.35 410.6056 415.125 418.3667 423.5528 428.9 434.0667 439.2667 443.5667 446.325 448.3167 443.6333 437.075 431.5167
669.7325 663.6114 660.4631 655.3775 645.3572 638.7819 634.7709 632.2514 633.9328 638.6108 630.8083 625.1495 611.715 593.2264 578.3836 556.9717 535.975 519.1166 518.31 517.688 517.1636 516.9917 514.4836 507.0961 504.7017 510.01 522.92 549.9242 560.67 569.7886 586.615 592.1594 583.5611 572.5908 565.8206 571.4622 579.1141 586.3008 588.2936 586.465 584.9406 589.2205 594.215 590.9456 581.3439 573.5991 565.5475 555.9003 543.775 532.0483 520.0167 509.3783 499.8817 492.4697 497.1192 498.8728 499.2389 500.115 500.9675 499.8847 493.1033 484.64 486.2997 492.0617 496.4889 498.4972 498.8483 499.7078 503.477 500.9592 495.4428 488.6267 482.6692 478.4464 473.9431 475.9142 478.9297 481.5017 484.8133 488.4195 491.5233 492.9192 494.9761 495.3156 493.8808 490.7086 488.3014 484.2184 471.8936 463.365 467.0733 471.5886 472.79 475.8458 482.5086 489.537 497.1442 506.4333 512.9314 516.1442 516.0292 511.5372 507.1267 505.7244 506.3117 508.6667 511.0453 511.7295 511.585 510.8822 510.6722 510.6742 508.8928 505.4664 501.7133 499.8061 497.6242 495.6942 492.5211 491.3472 491.8975 493.1783 493.7881 493.2117 491.113 488.5894 485.1733 482.1628 486.2619 494.515 499.3986 498.1264 494.8667 491.1431 486.7744 481.53 476.0036 478.6803 484.3367 488.7153 490.8409 492.8725 495.3708 496.8892 497.9817 497.8394 496.1353 495.2392 494.7861 495.2794 494.6742 493.1369 490.6786 486.0966 484.0064 484.1953 483.1617 483.9614 489.9714 490.825 492.2522 494.5739 497.3933 500.0378 504.3333 510.335 515.5228 518.7742 520.505 520.5539 518.5458 514.4625 507.7944 501.1208 499.9383 506.0711 513.072 518.1392 519.8508 517.7369 510.2192 501.8806 496.5822 497.105 496.2486 489.3055 480.4642 471.4853 465.5275 461.9742 457.8694 453.4519 448.58 443.1456 436.9067 431.19 425.7011 421.7645 415.4 405.6578 400.6122 412.6817 418.2983 428.8686 439.7216 450.9733 456.4386 448.5592 441.0756 438.8478 435.0775 433.335 432.8289 430.7308 427.8647 423.1828 419.4283 418.4142 417.5381 418.9483 419.6044 420.1306 422.215 423.9689 427.3031 428.9367 428.2286 426.6025 424.5808 422.0606 426.2278 434.2967 434.285 430.8892 429.7092 429.0167 427.9447 426.0042 424.4469 422.7672 421.7417 421.8647 424.9292 426.8466 422.4628 417.7667 415.1775 413.687 414.155 414.3867 415.3739 416.5681 417.0808 416.9769 415.9781 414.7166 414.4011 417.1042 419.1017 419.0158 418.3875 417.5783 416.2289 414.775 413.3958 410.2889 409.1392 408.4117 408.7661 411.0483 413.7675 416.6061 419.0364 422.11 424.5016 422.44 418.0167 414.6933 411.3047 409.3375 408.4175 408.0436 407.9767 408.4667 409.6111 411.0417 412.5833 413.95 415.275 416.3222 413.1139 406.9917 401.1333 397.4833 394.2417 391.3055 386.4 386.9167 386.1833 383.8889 382.7917 382.9167 382.95 382.6833 382.4167 382.6861 382.5583 382.4167 382.0639 381.2917 379.9222 378.2667 375.9 374.7278 374.0972 372.975 372.2833 369.6722 363.575 360.8111 359.9028 359.9417 360.3139 359.5861 358.15 357.7139 357.3139 356.2167 353.7306 351.9167 349.1583 344.4417 339.125 334.4333 327.9083 328.5222 329.3667 332.4333 335.9056 334.975 335.7111 338.2695 339.45 340.5611 341.7611 341.8417 337.3111 342.0278 345.1667 346.4167 347.7528 348.6083 349.5889 351.3972 353.4917 355.5305 357.6695 359.8417 361.25 362.4889 363.6083 364.2972 364.8778 365.5667 366.2972 366.2805 365.9333 366.4333 369.2222 371.6167 373.3861 374.8445 376.7833 378.9028 381.7444 387.6583 391.6833 394.4555 399.9833 406.3861 408.0139 408.8333 409.4445 412.9833 415.9833 418.7333 423.7139 428.7083 433.1472 437.8806 440.5667 442.5167 443.4861 439.4417 435.0778 429.9972
657.465 652.145 642.2534 630.63 622.7441 621.7575 621.215 622.2892 622.8817 623.235 623.2258 616.1658 599.155 585.74 568.6866 546.595 526.895 518.62 517.2575 516.0783 514.3633 513.86 508.49 504.6958 504.7125 509.9542 522.23 544.9275 557.5167 571.4833 582.73 587.1891 578.1284 566.995 558.77 563.8508 571.2225 576.6358 578.3134 575.97 575.235 581.0542 588.375 593.4125 586.9558 578.8475 569.2308 556.77 545.4075 534.0575 522.7142 510.615 499.645 489.8742 492.655 493.4359 494.2967 495.9 498.0367 496.7425 490.2675 482.9592 481.1183 486.9375 490.2817 490.9575 492.6925 497.9108 498.225 495.1775 490.7675 486.0083 481.86 477.6783 474.43 472.1375 474.07 477.1508 480.23 483.7258 486.5983 489.985 493.9925 496.66 493.6275 485.9658 480.0017 475.7675 469.8125 462.3575 463.385 468.325 470.49 474.46 481.18 488.7958 495.5775 502.3175 507.5 509.8275 508.7592 503.9758 500.6725 498.8983 499.6483 502.97 505.6292 506.6075 506.835 506.8125 507.3167 507.5 505.4083 502.8 499.9375 497.9583 496.3217 493.8775 489.6917 487.2975 487.665 489.8908 491.4783 491.495 489.27 484.0983 479.7725 480.1383 487.8417 496.33 500.3892 497.8858 493.435 488.8758 484.3508 479.33 473.655 476.2825 480.9725 483.3833 484.0833 485.2425 486.26 486.8583 488.415 487.7925 487.0725 487.3525 488.8658 491.8133 491.6025 490.8125 489.1325 485.0475 481.1167 480.86 480.18 482.1042 486.105 486.5425 489.1342 491.7892 493.2675 494.4542 496.9908 502.9625 508.6967 512.6575 514.5575 514.7117 512.9866 507.0625 500.3633 494.8091 494.365 499.9333 505.3167 508.405 510.5975 512.1025 508.71 502.105 493.5942 488.4725 490.5758 490.0742 485.2025 479.5558 474.7175 469.89 465.4375 459.5325 453.14 446.6266 439.4175 434.005 428.8508 425.0783 419.795 410.32 398.7258 408.115 414.6792 424.1642 435.3825 447.2342 455.0683 447.7175 440.175 435.9583 434.165 432.005 430.9792 429.1075 427.1567 424.6433 419.8 416.4233 416.125 418.9825 419.8358 422.8017 426.5875 430.4233 430.5625 428.675 426.3042 424.1358 421.98 419.2867 426.9925 431.95 429.7658 428.3242 427.485 426.6625 425.3283 423.395 421.6117 420.2617 419.525 420.33 424.8092 423.7825 420.3558 416.7708 414.4575 413.415 412.1442 411.77 413.0875 414.0992 414.645 414.7242 413.9175 412.62 411.8267 413.3108 414.8375 415.3975 415.9075 414.9025 412.4475 411.2467 409.3475 408.1733 406.6942 406.2625 407.0975 409.3008 411.7975 414.1025 416.15 419.3075 422.1025 422.8858 419.34 417.2858 411.0375 407.7625 406.075 405.2592 405.2775 405.8667 406.7833 407.75 407.9667 408.425 409.25 409.45 408.1417 404.975 400.975 397.7917 394.5 391.6667 387.225 384.125 384.4 383.5917 381.725 381.4 381.2167 380.95 380.6833 381.35 382.1 382.4333 382.45 382.15 381.0167 379.8167 378.175 376.075 373.3917 371.45 369.8417 366.7167 363.35 360.6083 357.4417 356.25 357.475 357.8917 357.125 357.1083 356.075 354.25 352.2167 350.575 348.9 346.4333 345.7 343.425 336.65 334.4833 329.85 330.55 329.3 328.55 330.3417 334.5083 337.95 339.225 339.725 338.55 336.0833 343.05 344.825 345.6 346.5667 347.475 348.3 349.9833 351.8 353.8667 356.2667 358.7 360.0917 361.0083 361.825 362.5583 363.275 363.925 364.6167 364.3167 364.15 366.9417 370.3167 371.875 373.475 375.0583 377.2 379.3833 382.575 387.325 391.6167 395.675 401.9 407 411.3917 412.375 412.8583 415.3167 416.8 418.9083 423.4667 428.375 432.2833 434.2833 436.6 439.1667 439.675 435.35 431.0667 426.3583
646.7767 638.0911 625.6617 615.2742 610.7894 610.0817 610.4509 613.2839 616.8389 613.1175 613.7697 600.1975 588.495 572.6981 550.6161 537.8225 521.2233 518.5372 517.2925 516.0492 512.9783 509.3658 505.995 505.1469 506.9358 510.6594 523.5414 540.9266 553.5758 565.9697 577.1575 583.1147 573.8206 561.9825 552.4903 556.4019 563.3058 567.4528 568.2358 565.7416 566.2086 573.3114 581.485 586.8072 588.1248 581.4708 570.3433 558.3439 546.74 534.0472 523.2367 510.8517 499.1111 488.8161 488.5617 488.8489 489.4572 492.7058 495.2114 492.0933 485.0567 478.9519 476.5467 480.2217 483.8508 485.9497 489.7158 497.3569 494.8925 490.7667 486.345 483.0205 479.705 476.6644 473.2406 469.7775 470.6436 473.8028 475.6425 478.7919 482.2803 488.73 493.9409 493.9128 488.495 479.3342 473.5117 470.8042 467.3897 462.5917 459.9967 465.0517 467.7567 473.2325 480.2681 487.0394 495.0233 500.0822 501.545 501.4067 500.1447 497.4117 493.91 493.6042 494.1906 496.8192 498.9117 501.873 502.5725 502.9553 503.7306 504.0592 502.4753 500.16 498.6325 496.7828 494.6608 491.4608 487.0067 484.6089 484.0909 487.0867 490.2672 491.32 490.1408 483.1392 477.2342 480.425 488.0742 495.52 499.3728 497.0161 491.3784 485.6128 481.1328 476.4967 471.5564 472.3333 475.8083 477.5583 477.8522 477.9292 479.0269 480.1372 481.015 481.1859 481.1236 481.3408 483.9706 487.7514 487.4975 487.3158 487.2364 484.1608 480.2492 477.8094 477.0567 479.5886 482.39 483.2308 485.9384 488.192 488.8667 488.4386 488.9692 493.4691 500.0095 504.6811 506.3683 504.9194 501.0317 497.3167 493.2336 489.2461 488.175 492.9456 496.1142 497.7583 499.8136 502.7222 502.8883 499.4225 491.8589 483.79 484.0086 488.5872 490.0033 487.2778 483.6408 476.6558 470.8055 464.3714 456.7958 449.3953 441.5033 435.62 429.6575 425.0005 420.0525 411.7864 398.8811 403.915 412.0781 421.5305 432.8183 445.7867 453.3231 445.9092 438.6536 435.0217 433.2192 431.1417 429.2003 427.2217 425.7139 424.6817 420.3008 415.863 416.6828 425.2667 428.0617 429.7964 430.4225 429.9167 428.6261 426.1258 423.4519 421.7358 419.0875 415.9669 421.7197 424.8992 425.6744 425.6591 425.3525 424.5292 422.5203 419.8817 418.6389 418.1839 417.8958 419.6119 423.8294 421.1225 418.2225 416.3847 414.175 412.6653 411.0625 410.0242 410.1831 411.44 411.6967 412.7131 412.6584 410.79 409.5397 409.7064 410.54 411.5514 412.1622 411.1058 409.8842 407.9836 405.8033 405.1758 404.3367 404.4675 405.3136 407.6728 410.1275 412.1281 413.6025 416.105 419.1478 421.9608 420.6675 420.0284 414.7328 408.4708 403.8853 403.0358 402.7408 403.1694 403.8445 403.5 403.4194 403.7333 403.5583 403.3139 402.725 400.4167 398.9556 396.7389 393.8833 391.8472 389.4389 384.5 380.2694 381.8222 381.3667 379.5083 379.3167 379.0917 379.075 380.8611 381.975 382.8944 383.0028 382.8 382.3611 381.2833 377.4917 374.1583 371.325 369.3 367.65 365.3861 362.6667 360.225 357.675 355.1 355.2195 356.6139 356.3083 354.9055 354.2805 352.575 351.0083 349.3028 347.6417 346.6333 344.9278 346.7083 343.8917 341.1528 337.5 335.625 331.3056 326.375 322.6389 325.4 332.7833 337.7778 335.3416 332.7167 336.7722 341.5861 343.525 344.3806 345.2 346.1333 346.9833 348.5278 350.6083 352.9667 355.4055 357.0583 358.225 359.4445 360.375 361.2222 362.1444 362.575 363.0472 362.4222 362.9917 366.825 369.2028 370.925 372.7306 374.9389 377.2833 379.9472 383.7111 391.0333 395.1611 398.8528 401.9 407.3083 412.1722 414.9583 415.9806 417.4695 418.3667 419.5139 422.7333 426.4167 427.8917 429.0472 431.6333 434.6917 433.4889 429.55 426.2222 422.0389
625.8467 622.9853 615.7253 607.0075 602.8856 599.9398 601.5933 605.99 605.7464 604.6083 593.887 587.7414 574.9375 551.5211 542.2931 527.605 519.2947 517.1456 516.1841 514.8909 510.7372 509.2583 506.6309 505.76 508.475 513.7261 525.0075 536.7725 549.6083 561.5355 573.0767 581.2664 571.3561 559.5358 548.2933 549.6697 554.9117 557.2231 557.9564 555.3092 557.8147 566.795 575.6067 579.3725 584.8655 581.2725 569.9558 557.8289 545.9833 534.3309 522.9277 510.6642 499.4367 488.9653 485.6042 485.2195 485.407 490.7509 493.1114 487.4797 481.3217 476.3192 473.9005 475.6683 479.675 483.2942 488.9183 491.8189 489.8506 487.2433 483.657 480.8714 478.3975 475.9278 472.3892 468.8425 467.357 469.4508 472.2183 476.7275 481.1933 487.0092 488.3528 483.222 479.5917 473.6656 469.4411 467.4017 466.0636 462.9995 458.1408 460.5169 464.9075 470.6675 477.1844 483.6633 491.5842 496.8356 496.655 493.9892 491.9553 489.6397 487.0375 487.3103 488.4236 490.6675 493.6906 496.6411 498.1067 499.0847 499.7514 500.3942 499.7258 498.8336 497.4858 494.8658 491.5981 488.2967 484.6592 481.8328 481.0817 484.4195 489.0211 492.1967 490.7583 483.1859 475.6067 477.115 483.5833 490.4833 494.2278 493.0156 487.7917 482.2553 477.66 473.5975 469.1142 469.0703 470.335 472.5108 473.1094 473.4167 474.0725 474.6925 475.4425 476.4758 477.6786 477.0392 479.1553 482.1089 483.2092 483.5316 484.6336 483.6767 480.5128 477.2644 474.8391 476.0681 478.3114 480.1125 482.8608 484.8908 484.8567 483.6683 483.5411 486.0483 488.8986 492.3647 494.7692 494.1708 491.8208 490.1892 487.5255 483.2986 482.0833 485.5264 487.6364 490.1108 493.5005 492.3739 494.0308 494.7475 487.9278 479.8759 478.7239 483.7853 489.4567 491.5975 489.9456 483.2583 474.9656 467.4664 459.4508 451.0658 442.7592 436.6309 430.0456 424.1108 419.0641 412.2189 403.8 400.2358 408.6161 418.4664 431.385 444.2953 448.9286 443.0458 436.5839 433.24 431.57 429.5861 427.6989 425.1633 423.0361 421.7516 417.5325 414.9717 418.4431 425.1942 427.2994 427.0956 426.195 425.3528 424.4294 422.5633 420.4972 418.2631 415.81 414.7791 418.9483 421.5142 423.0314 424.0364 423.7217 422.5806 420.2711 417.4392 416.2753 415.6725 416.08 418.625 419.7706 417.7925 415.0575 414.2589 413.3425 411.322 409.8044 408.5633 407.8764 408.9353 409.2808 411.0611 411.4125 409.9492 408.1678 407.8778 408.4733 409.1161 408.9395 408.1358 405.6919 404.6336 404.4633 403.5653 402.5803 402.4883 403.5381 405.265 407.695 409.507 410.765 412.5133 415.2964 419.0081 420.025 419.7711 416.7225 409.7292 404.8664 400.9861 400.05 400.1583 400.4306 399.2417 399.4278 399.2639 398.8583 398.6194 398.0806 396.975 396.0361 394.7195 393.0833 391.2805 389 384.4083 378.8861 379.7333 380.5583 378.7167 377.0167 377.2083 377.4278 379.8111 382.1917 383.0167 383.0222 382.975 381.5389 378.2778 375.725 373.075 370.5167 368.25 365.9833 363.5972 361.3083 359.2972 357.5056 355.3083 353.9306 354.9528 353.45 353.6555 353.5555 352.0167 350.325 348.5555 346.7 345.2195 343.45 342.875 343.925 342.2111 338.2083 335.0528 333.05 330.6833 327.275 323.6917 324.2833 330.6111 330.4361 336.5917 339.4833 340.9139 342.3667 343.0833 343.8833 344.8167 345.6805 347.3806 349.9 352.225 353.5833 354.5083 355.5861 356.8833 358.5917 360.2861 360.6861 361.1 361.2222 360.5611 361.575 364.8944 367.4 369.8 372.3667 374.9306 377.3583 380.7306 384.9028 394.4333 398.7139 398.2306 400.4583 406.3111 411.7361 414.75 417.4722 419.0472 419.35 420.3611 422.2889 421.575 421.8472 423.0083 424.9583 428.4778 426.775 424.0667 421.15 417.2167
615.7825 614.545 607.0092 602.23 594.2258 589.6525 590.7025 596.6108 594.4875 589.785 582.8909 575.0283 551.6625 537.8967 527.0375 520.27 517.5025 515.1042 510.325 508.675 508.1017 510.115 509.9158 506.7267 507.425 513.7358 522.6859 534.3625 545.7017 557.3683 571.2525 580.4117 571.7542 559.4775 546.8675 542.3658 544.6575 545.37 548.0992 546.835 551.6542 561.0441 568.8275 572.8942 577.6766 575.79 565.6992 554.0683 543.05 532.4525 521.9308 510.6075 501.3258 491.91 484.905 482.3667 482.305 487.5525 488.4833 483.0383 477.885 473.6942 470.7925 471.545 475.435 480.3817 484.4925 485.82 485.58 484.4025 481.5167 479.6333 477.3975 475.1908 472.7192 468.63 465.2367 465.9442 468.665 474.7192 479.4008 480.4925 477.2633 475.0133 472.6825 469.4933 466.3725 464.59 464.1117 462.0325 456.6425 458.5609 461.9433 467.25 473.5733 480.8375 487.945 492.0025 490.2967 486.9625 484.4075 482.07 479.975 481.1425 483.325 485.48 488.76 490.7742 491.8625 493.6633 495.61 497.9025 498.1825 497.7808 496.38 492.8208 489.505 486.2475 483.4275 481.0067 478.4325 480.1083 486.4133 489.5675 487.4008 480.5867 472.88 471.7692 477.9575 484.0425 487.4983 487.7892 484.3975 480.3975 475.3542 471.2125 467.0333 467.3933 468.0575 468.8383 469.4133 469.9325 470.635 471.4317 472.115 473.4608 474.585 474.81 476.1433 478.2933 479.96 480.9475 482.14 482.5175 480.3992 477.4592 474.475 472.045 474.175 477.155 480.61 482.2567 481.3825 480.0417 479.765 481.0525 482.9858 485.6642 488.195 488.6841 487.6533 487.0025 484.5808 479.3942 476.63 477.5117 479.815 480.48 481.6075 483.3734 486.63 490.5117 486.0775 477.695 473.3708 477.6325 484.8275 490.5725 492.5492 486.575 477.4508 468.1108 460 450.735 442.5758 436.5975 429.3567 422.95 418.0775 411.9675 406.1817 397.7575 404.3292 414.6808 427.3275 439.32 445.005 438.7 434.3617 431.6575 429.29 427.3183 425.4341 423.0875 421.1617 417.8167 412.9475 409.7742 413.9742 416.43 417.3317 418.6708 419.285 419.1533 419.1575 419.4025 418.1892 415.7983 413.0275 412.765 416.185 419.59 422.2242 423.8075 422.415 421.0183 419.2433 416.9975 415.4225 413.4308 413.53 417.1708 416.875 415.0075 412.7525 412.1867 412.3675 411.0067 409.1567 407.59 405.7108 406.47 407.76 409.9833 409.5108 408.0825 406.6667 406.0125 406.2975 405.8408 405.5383 405.555 405.2717 404.2008 402.72 401.5808 400.7167 400.245 401.0317 402.5617 404.77 406.2783 407.3742 409.0225 411.6167 414.7192 416.9025 416.5692 413.1442 408.505 404.0075 399.4767 398.2425 397.1333 396.7333 395.7 395.6667 395.15 394.925 395.1583 395.0833 395.1 394.075 393.075 391.55 389.6083 386.9833 383.5 379.3917 377.7083 377.8 377.6 375.0917 374.075 375.5167 379.1 380.25 379.6083 379.35 378.75 377.65 375.975 374 371.7333 369.625 367.425 365.225 362.7417 360.875 359.8417 359.5667 358.05 354.9083 353.0667 351.1 349.9667 351.3667 351.4 350.3917 348.3333 345.95 344.3583 343.275 341.475 339.8 340.075 337.9 334.5583 332.8583 330.925 329.0333 327.0167 322.45 321.7167 328.4917 336.6 338.9167 340.1 341.175 342 342.8167 343.75 344.6833 346.2167 347.975 349.6917 350.7417 351.75 353.0083 354.65 356.45 358.25 358.4833 358.775 358.8583 358.325 359.325 362.9083 366.0917 369.075 371.8083 374.6583 377.875 383.2583 388.6167 395.15 396.475 396.5167 398.625 403.9 408.7833 411.925 414.65 417.5167 418.875 419.9417 418.3 415.775 416 417.6 419.55 421.4167 420.9167 418.6 416.1583 412.3417
605.6725 606.952 602.0403 597.3983 587.9744 582.1861 584.3116 588.6747 585.1161 573.8617 567.9531 551.2403 536.4208 522.6292 519.3889 517.4683 515.6075 508.0558 501.1075 503.5133 505.23 508.2758 505.9828 505.5697 503.4208 512.4678 520.7808 531.0233 543.9297 557.1469 570.8075 580.6681 574.0786 561.8192 548.9472 537.7314 533.8616 535.2502 537.4753 538.5109 545.7339 555.2322 559.8066 563.945 567.9628 568.895 561.5036 549.9689 538.5667 528.445 519.0575 510.0675 501.4997 493.1186 485.1559 479.7264 478.6753 481.1458 481.9803 478.4095 475.0316 471.7567 469.2983 468.555 470.9242 475.9984 477.4792 479.9017 481.7539 480.97 478.9292 478.3425 476.7808 475.4817 474.1492 470.7342 464.8025 461.8486 464.345 469.1205 471.8861 471.5133 469.8461 468.3297 466.6067 465.1989 463.2595 461.4075 460.9833 460.2294 454.9817 455.8658 459.0292 463.6117 469.5886 476.8394 483.8725 486.0583 484.3133 480.7775 477.2167 474.4642 472.6667 475.7067 479.6097 482.2092 484.5781 486.4336 488.1308 490.8586 494.3214 496.5358 497.1892 496.7545 495.7408 492.6342 488.8439 486.3317 483.475 479.3236 474.6667 476.8097 483.0042 485.605 484.5045 478.7611 471.4367 467.9872 472.3122 476.6892 479.2758 480.567 480.6575 477.7258 472.7706 468.5566 464.7511 465.24 465.3425 465.3714 465.9408 466.8067 467.7739 468.9917 469.5458 470.7667 473.4469 473.4308 474.3689 476.0181 477.6192 479.2578 480.438 481.1792 479.9133 477.2469 474.5733 470.6595 471.183 474.7267 478.2314 479.1128 478.5458 477.165 476.4153 476.9442 479.6022 483.2081 486.175 485.9711 483.8344 482.2158 479.3583 476.4328 474.7142 473.6358 473.12 473.045 473.5144 474.3408 478.0125 485.2772 484.4911 476.485 469.5636 471.9033 478.6525 485.8864 490.5264 486.1583 477.4847 467.3914 458.6241 449.1681 441.3481 435.5558 428.6053 422.7142 417.6283 411.7828 406.8092 397.6625 400.07 411.2355 422.0075 433.535 439.1911 434.5458 431.8853 429.2486 426.9058 424.8145 423.0486 421.7408 420.4358 417.7011 412.6542 408.2642 409.4331 411.3783 412.5208 414.4336 414.7542 413.865 413.9147 414.3917 415.6658 414.6003 411.9242 411.4467 415.4258 421.1742 425.7559 423.8356 421.1958 420.3394 419.2169 416.9142 414.7364 412.9294 412.2425 414.293 414.192 411.8558 410.1961 409.97 410.8175 410.2344 408.5158 406.275 404.5981 404.6255 406.1267 408.3722 407.5703 406.7408 405.1642 403.9569 404.2717 404.1392 403.7067 403.4742 403.2125 402.2556 400.8558 400.2006 400.1322 398.985 398.2753 399.3194 401.3492 402.7358 403.7069 405.0525 406.7203 409.8372 411.9508 409.4339 404.3019 401.335 399.9305 398.0103 395.8767 394.5667 393.8 392.7 392.0167 392.1056 391.95 391.7111 391.6833 392.1 391.0305 390.3194 389.8083 388.3528 386.1056 384.425 382.425 381.5722 379.375 377.1778 374.8333 374.1917 372.9528 375.7778 376.5167 376.2 375.7333 375.4 375.1083 373.9639 372.4 370.4889 368.525 366.7667 365.0083 363.1639 362.275 361.6639 360.8361 359.625 357.8861 355.25 352.25 349.0694 347.6083 348.7833 348.7917 347 345.1167 344.3028 342.7667 340.075 339.4806 337.5361 336.4667 334.2306 332.5833 330.5833 328.5972 327.5361 325.2833 319.6139 325.4361 333.9833 337.3361 338.6194 339.7333 340.6667 341.6667 342.6 343.6028 345.1639 346.8 347.6444 348.3306 349.325 351.0139 352.9305 354.8917 355.9639 356.0306 356.1167 356.0778 356.5889 360.2833 363.7139 366.2694 368.8917 371.8195 374.6639 378.5583 385.5639 388.6917 391.0333 392.5833 394.0667 396.125 400.8917 405.7472 409.1417 412.2722 415.6389 417.525 416.7306 413.2417 410.1417 410.5139 412.4 414.3917 416.1056 415.9195 413.5917 411.2222 408.1611
595.6542 600.3856 600.0806 591.1959 581.1667 576.2942 578.5967 584.5422 578.6739 567.1517 552.0878 538.2028 523.5283 518.8511 517.6622 515.9208 509.2405 499.9992 500.14 502.1906 502.672 503.3842 503.4978 501.8739 499.3908 508.2911 519.8356 530.1742 542.4711 556.5403 569.6942 581.0314 577.1506 566.8458 555.3356 543.5914 533.1008 527.4353 528.0583 532.0325 540.3622 547.4583 549.7617 553.2872 558.1961 560.3242 557.2397 548.4775 538.3292 529.2989 521.1075 511.86 504.3389 497.7619 490.0192 482.1958 476.4961 475.3992 475.6814 473.2878 471.6983 469.5464 467.1275 466.2758 466.3881 467.4364 471.0733 475.5033 478.5483 477.2325 475.6583 475.6769 476.3308 476.0431 475.4308 473.1108 467.8047 462.0728 459.7533 461.8797 463.3847 464.2075 464.0747 463.3103 462.7159 461.9672 460.5247 458.4517 458.6453 459.3258 453.6075 452.085 456.3317 459.9625 464.985 471 477.8633 480.9294 479.7539 476.49 472.7011 469.3231 468.3825 471.9822 477.4908 479.9342 482.3928 485.3203 487.9542 490.988 494.2317 495.8875 496.4322 496.0161 495.425 492.9783 490.3906 489.9883 486.143 476.5539 471.41 473.6925 479.5042 483.8 484.8361 478.9183 471.0492 464.9467 467.4697 470.6142 472.2933 473.9653 473.6975 471.6589 468.7394 465.4642 462.4833 461.6564 462.7 462.8242 463.2559 464.21 464.7003 466.3728 467.1317 467.7378 473.1267 472.0508 472.2333 473.9806 475.3067 477.2647 479.1408 479.2683 477.8111 476.4547 473.7625 469.08 469.8441 471.6158 474.3778 476.7919 476.785 475.0392 474.2031 475.1175 479.2986 482.5403 482.6767 478.87 475.2144 472.81 471.5695 470.9064 470.1625 470.095 468.3875 468.1367 468.4844 469.5214 471.395 475.3089 478.1658 473.3775 466.3725 467.7353 474.0883 480.9622 486.2572 485.3008 478.1514 467.5039 458.4233 448.7678 440.7667 433.9558 427.8145 422.65 418.4167 412.1875 407.8419 399.6175 394.5486 407.3931 416.5825 427.0511 432.9142 430.9417 429.8331 425.51 423.51 421.817 420.415 419.6342 419.7658 419.0005 414.3508 409.7858 406.3842 407.8933 408.5247 409.3275 409.6475 409.5675 409.7705 410.2817 411.9025 412.7947 410.7525 409.3603 415.3869 422.1859 422.4833 420.1003 418.8225 418.2267 417.4717 416.4508 414.7175 412.8239 410.9875 410.108 409.4692 408.7292 408.3419 408.2489 408.9425 408.8708 407.3817 405.5775 404.8178 403.0708 405.1617 406.5983 405.2878 404.7675 403.9764 402.7478 402.56 402.3819 401.7953 401.4083 401.1075 400.3883 399.6733 400.075 400.2342 400.0275 396.2708 396.3992 398.0492 399.3575 400.1989 401.1508 402.5083 403.9928 401.3383 401.1853 402.9861 404.5667 401.368 398.9069 396.3292 393.95 392.0861 390.2083 388.7056 388.5278 388.425 388.0167 387.5833 387.975 387.6444 388.0528 388.9667 388.2 388.0861 387.325 386.9806 386.8055 385.0917 382.7667 381.1972 377.9333 370.7111 369.4361 370.5083 371.7472 371.975 372.5833 373.2195 372.9666 371.7333 370.3056 368.3055 366.7667 365.3944 364.35 363.8917 362.6278 360.5417 358.9583 357.2917 355.1278 353.1333 351.0278 349.0111 346.375 345.4889 344.5167 344.2667 343.1694 340.1083 337 335.7667 338.0333 336.3167 333.6833 332.5694 330.625 328.6667 327.3722 325.95 322.8194 319.3861 328.7583 335.8944 337.15 338.2583 339.2694 340.3111 341.375 342.4528 344 345.2917 345.8195 346.1972 347.7333 349.6861 351.3833 352.7833 353.35 353.4555 353.1167 353.125 360.0361 363.7167 365.7444 367.7972 369.925 372.4695 375.3472 379.8083 384.7972 384.5111 386.4833 388.9417 390.9361 393.5667 398.1972 402.5528 406.25 409.9472 413.5056 414.8833 412.7611 409.2722 406.4667 406.7166 408.1139 409.2833 410.7722 410.9167 408.9583 406.5278 403.6389
586.1825 594.3442 595.9225 584.5925 572.4708 568.6216 576.0975 582.1234 573.2792 561.255 542.2308 525.9659 519.8875 517.805 516.5158 510.8775 501.4058 499.7617 500.6775 499.185 502.0808 500.235 499.2767 502.3783 498.405 506.3317 517.6717 528.28 540.9509 555.5075 568.5125 581.33 582.2067 573.19 562.815 551.1833 538.2825 526.3233 521.24 526.8975 533.23 537.4817 540.0775 544.2817 548.9442 550.0575 549.5375 548.0683 543.175 535.415 527.7467 518.99 511.4833 505.7233 496.3075 485.4958 478.1675 473.07 470.71 469.05 468.2475 467.2658 465.6967 464.775 463.1033 463.1492 466.0875 473.1342 474.3 472.6225 472.8283 474.0242 475.665 476.1767 474.9233 472.8825 469.4292 464.2008 459.0775 457.2875 459.1158 459.985 460.0583 459.81 459.645 458.3633 457.5642 456.415 456.1242 457.0875 453.535 448.3867 453.8983 457.115 460.3775 464.6025 470.59 475.265 475.1833 471.595 468.4608 464.2633 464.955 469.9633 473.8167 477.265 482.0467 486.29 490.19 491.6983 493.0641 495.4325 495.8008 495.7608 495.7325 494.875 493.005 489.155 482.0217 474.1275 467.005 468.62 474.66 479.4375 481.915 477.5675 469.4625 462.2075 463.1433 464.9025 466.145 467.6467 467.505 466.6967 465.4384 463.1175 460.255 458.3983 459.95 459.91 460.2783 461.78 462.8025 463.6017 464.475 465.2608 469.2325 469.6975 470.3958 471.7825 473.1675 475.4317 477.13 476.8025 475.6542 474.3725 471.085 467.0683 468.0508 470.58 474.3717 476.1508 473.835 472.4692 471.215 472.5225 476.605 476.3483 473.875 471.2433 468.9308 466.9275 466.0867 465.5992 466.04 467.5225 465.8575 463.8725 463.0125 463.6292 465.66 467.4367 469.455 468.24 461.8292 462.9625 469.6575 476.4108 482.7858 484.0375 478.3058 468.6333 459.595 450.3942 441.1958 433.4375 427.6375 422.0042 417.7375 412.0125 407.925 401.6 393.5875 402.8808 414.5375 424.2608 428.515 427.23 424.3992 422.7642 420.7025 418.8867 417.8225 416.8925 417.975 419.6608 416.305 410.9492 406.5008 405.325 405.3408 405.3367 405.53 406.0942 406.86 407.36 408.7558 409.5367 408.615 408.9183 414.96 418.3475 418.2558 416.8925 416.165 415.5 414.8325 414.465 414.2183 413.3458 411.4725 409.32 407.115 406.8575 406.6417 406.8508 407.045 406.6183 406.4642 404.785 402.9642 401.5708 403.4025 404.4133 402.8317 402.3025 402.1275 401.555 401.1175 400.8217 400.1267 399.625 399.3358 399.0125 398.3725 399.6241 399.0058 397.8025 395.9783 395.2517 395.185 397.2308 398.0267 398.3975 398.7017 399.5767 402.2425 404.5625 405.3633 406.02 403.9225 400.735 398.0175 395.3 393.2917 391.1 389.1583 387.4833 386.275 385.1083 384.2167 384.45 385.3917 387.275 389.1 389.8417 390.3167 389.6 388.8 388.575 389.125 389.3 386.5417 382.075 374.8167 369.9167 367.25 366.875 368.0417 369.975 370.575 370.4917 370 369.8417 368.5417 367.3 366.1417 364.4583 364.225 363.7 361.9917 361.125 359.3833 358.5583 356.325 353.05 351.2833 349.075 347.6583 345.1917 343.5 341.725 341.2167 340.05 334.8 336.425 337.125 333.4083 332.4917 330.45 328.3667 326.9167 325.875 324.375 320.0333 322.3 332.6917 335.1667 336.825 337.65 338.6333 340.125 341.45 342.65 343.4 344.025 344.6 346.375 348.025 349.6167 350.675 350.9417 351 350.95 354.9833 360 363.225 366.1167 368.55 371.2 373.5583 376.825 380.1 380.9583 380.2333 383.425 386.075 387.8667 390.7 394.7 398.725 402.675 406.875 410.5917 410.525 408.7083 406.0583 403.375 403.525 403.975 404.525 405.7833 405.5333 403.7 401.6583 399.2667
580.0317 586.7514 588.4061 578.2475 566.6153 562.0519 571.5567 577.7614 567.2317 547.35 533.6906 525.0609 518.7675 516.8088 515.1222 505.78 499.1197 500.0061 499.1483 497.5711 500.0856 499.1192 497.0472 499.1536 496.6525 504.2694 516.8884 528.6025 540.3931 553.4927 567.01 581.2189 586.4642 577.5092 565.8694 553.6169 540.5725 527.5517 518.2869 519.9417 524.2228 527.3078 531.235 536.0039 539.3686 539.17 539.5561 541.4841 544.275 541.7075 535.0525 526.9033 520.4514 512.7347 502.5917 491.5847 482.2278 475.6325 471.4317 467.7539 465.2175 463.4409 462.4783 462.4158 460.9381 459.5314 461.8933 467.9983 467.8364 467.7083 469.4942 472.5867 474.7783 474.32 472.6645 470.3542 466.8508 462.0983 458.0517 456.1147 456.3581 457.9833 457.5072 456.7681 455.9033 455.3761 454.8578 454.295 453.5711 454.1992 451.5792 446.9675 451.3497 454.9592 456.1089 458.8869 463.6042 467.9589 468.7364 466.2833 462.9164 459.5731 461.6983 465.9236 469.7522 475.6083 483.2617 488.3944 491.2175 491.6836 493.4397 495.39 495.7708 495.8416 495.7608 495.5508 492.9875 485.2592 478.2753 470.3997 463.9625 464.1503 468.3214 472.4875 475.3689 472.2167 466.13 460.2892 459.2725 460.0867 461.437 462.7392 463.2333 463.3733 462.4581 460.3042 457.5919 457.0736 458.425 457.5194 457.3828 458.8708 459.6075 460.7958 462.0225 463.4075 464.9717 466.8733 468.65 470.2845 471.3617 473.4264 475.1025 475.3158 473.0417 470.0958 466.9658 465.1595 467.3922 473.3525 475.3961 473.4167 468.8683 467.9728 466.8978 466.8692 468.2836 468.3383 467.2025 465.5403 464.1375 462.97 462.165 462.1683 463.4467 465.4236 464.222 461.2958 458.5419 458.8856 460.2042 461.0714 462.2692 462.7275 459.1775 459.6744 466.1642 472.5692 479.3492 482.745 478.1519 467.9183 458.7875 449.6428 440.3389 433.34 427.4286 421.3028 417.4625 412.3264 408.0289 404.4617 396.5792 396.3589 409.855 421.9066 425.2325 422.4017 421.5667 419.1419 417.4492 416.6494 416.0897 415.7383 416.1661 418.5031 417.7342 412.1444 406.9953 403.8734 402.7 402.2139 402.3958 403.0736 403.7272 404.2258 405.2814 405.3064 405.6525 410.7361 416.1053 417.0925 416.4492 415.1444 413.7992 412.9733 412.2822 412.5917 413.0567 413.1386 412.4991 409.775 406.3928 405.0525 405.0192 405.3014 405.2017 404.2228 404.4494 403.7675 402.0078 400.4431 400.86 401.463 400.4131 399.9917 399.8203 399.7483 399.7833 399.3281 398.59 398.25 397.9919 397.7784 397.28 397.2469 396.4539 395.69 395.4359 395.7653 394.4083 394.5347 395.3975 395.565 396.4158 397.8342 399.905 402.9425 404.6642 405.19 404.813 404.1228 400.135 396.7333 394.4417 393.0333 392.1667 390.5083 388.375 386.3528 383.5444 382.425 383.5833 385.8861 388.15 389.1639 388.6306 387.75 386.9111 386.8028 388.0333 388.9861 385.6361 381.8833 377.6167 373.2444 369.7417 365.5167 363.4417 366.45 366.9722 367.1139 367.9333 369.1278 368.4305 367.25 365.9306 364.7055 364.225 363.8972 363.3028 362.7917 361.725 360.5583 358.1417 354.7944 352.8056 351.3583 350.3 348.4222 347.1083 346.4055 345.2833 342.475 334.7639 332.0111 332.225 331.05 331.7472 329.4417 327.2055 326.0305 325.3417 324.1945 320.8889 317.9667 324.5028 332.1555 335.5167 336.6833 337.1917 338.375 339.6278 340.55 341.175 341.9666 343.1833 344.9333 346.4333 347.8083 349.15 349.1861 348.4472 349.95 355.3139 359.3389 362.2333 364.9333 368.025 371.4333 376.2722 378.2472 376.8083 376.1889 376.4555 380.825 383.4167 385.3806 388.0417 391.4528 394.9667 399.0167 403.0806 405.8722 405.5417 404.1694 402.0944 400.0333 400.1667 401.2667 401.475 400.2111 400.0667 398.3583 396.7056 394.8389
573.2458 577.8967 580.5828 574.9417 563.3909 555.1333 561.8533 568.14 555.5297 543.8192 536.517 529.9642 520.4675 518.2972 518.0139 508.8233 499.9647 498.6589 497.8125 497.5439 496.8489 495.175 492.8109 493.5133 493.8158 503.3433 514.5428 527.8383 540.3103 552.7325 566.2292 578.7314 582.9939 576.4183 564.5053 552.5281 540.7175 528.1667 516.41 511.0167 515.2942 519.3414 522.8375 527.6669 529.3589 529.4767 530.2653 533.9453 540.84 547.2333 542.3511 536.33 529.37 520.1238 509.675 499.2761 489.7619 481.4633 475.5745 471.7617 467.9608 463.0058 460.1047 458.4583 457.5453 455.1878 458.25 462.6497 462.9886 464.32 467.2792 471.0239 473.0833 472.2122 470.2367 467.7083 462.98 457.9689 454.6492 454.0253 455.5536 456 455.1769 454.4397 453.5675 452.5703 451.6169 451.3667 451.1956 451.5522 450.0058 445.5886 449.2864 452.97 452.4217 453.7192 458.0183 460.9786 461.7453 460.6492 457.8072 455.7897 458.0408 460.7072 465.3639 474.0167 481.5514 487.085 491.1266 493.5461 495.7458 495.6983 495.7592 494.9364 493.9342 492.2708 487.2167 480.5333 473.5333 466.4339 460.96 459.5972 463.1356 464.8525 466.4806 465.2975 461.6658 458.0217 455.813 456.7875 457.9231 458.8986 459.9775 460.105 459.8078 457.2583 454.5742 455.5911 456.7675 455.18 454.4367 455.1733 456.0225 458.3297 459.7875 460.9953 463.1317 465.1067 466.9886 469.132 469.8183 470.6714 469.6536 468.9067 467.2889 465.2633 462.5667 464.0297 468.31 471.3867 470.7286 467.662 464.3092 463.8244 462.7661 462.7208 463.37 463.1039 462.7725 461.4647 460.1908 459.2625 459.1717 459.3917 461.2325 463.1136 461.9586 459.7975 456.1364 455.2283 454.8625 455.2092 455.762 456.1675 454.0133 456.5925 462.49 468.6667 476.4992 481.1625 477.123 466.9375 456.4017 447.095 438.0403 431.5167 425.7361 420.2595 417.325 412.2794 407.9739 405.6342 403.7792 391.1681 400.6133 412.9531 417.8111 416.9808 416.7436 415.8503 416.0467 415.5 414.3164 413.5433 413.8425 416.4611 417.7133 414.3933 409.51 406.385 403.4669 401.6728 400.7642 400.3111 400.6139 401.4442 401.955 404.0111 408.9275 414.6147 418.1958 417.49 415.5425 413.938 412.1633 410.4289 409.8906 410.39 411.9686 412.4447 410.7567 408.2867 406.5341 403.4242 402.5225 402.8683 402.935 402.1794 402.5758 401.945 400.7586 398.2895 397.9458 398.4939 398.6358 398.5341 398.2603 398.1567 398.515 398.0775 397.1417 396.905 396.7822 396.5025 396.17 395.6611 394.9208 394.4041 393.4125 393.0164 391.8575 391.0958 392.6619 393.4575 394.4003 395.0431 397.1992 399.015 403.2128 404.3658 404.7731 405.7114 402.8467 398.7222 396.4722 395.6917 395.0778 394.6222 392.0833 389.4611 386.4 382.3917 380.6472 381.55 383.4083 384.1972 383.7556 383.6667 383.8139 383.8278 383.925 383.9667 383.0028 380.825 378.0639 375.8694 373.1 369.3306 362.9722 362.4583 362.1389 363.0444 365.4084 367.8 367.6639 366.175 365.2694 364.5222 363.775 362.75 361.8139 361.0667 360.0972 359.0139 357.0667 354.3833 352.3583 351.0167 349.4111 348.4056 347.3917 346.2667 345.5945 343.725 339.0222 335.4917 333.3667 329.2694 330.9361 326.575 325.5889 324.8444 324.8167 323.2195 320.3694 316.9917 322.1555 328.0472 333.5583 335.9444 335.8472 336.6417 337.7417 338.5445 339.4583 340.2056 341.6695 343.3083 344.6972 346.2083 346.775 346.0639 346.0056 349.5 354.55 357.5778 360.625 363.6167 367.0194 370.575 376.6583 375.8944 374.1 373.5972 374.4111 378.2667 380.9139 382.9806 385.7583 389.4944 393.4528 397.125 400.5056 401.0611 400.5167 399.4305 397.4 395.75 396.1694 397.4333 397.175 395.8194 394.6722 393.375 391.8 389.9611
565.63 568.5742 572.7975 572.2225 561.3642 549.0433 551.145 556.6008 556.2375 549.295 542.7484 534.3125 523.5125 519.8458 519.9942 515.325 504.7767 499.295 497.985 496.8875 496.0817 495.2025 492.5817 491.0017 492.465 502.5575 514.0375 526.4275 538.98 551.245 563.03 571.2775 574.4308 570.4775 561.0158 549.8283 538.5225 527.5375 515.3375 506.2375 506.7542 510.9683 516.15 520.8234 520.7775 519.8 522.0142 528.6183 538.4925 546.2917 546.055 542.085 537.915 528.5466 518.01 507.14 497.6883 489.3925 482.8842 477.67 474.27 469.7033 463.095 458.4025 455.4392 453.2933 455.6025 458.6992 459.4692 462.5775 467.4942 471.0992 471.82 471.0325 468.8742 464.99 459.3892 453.9708 450.2875 452.1042 454.0975 454.0825 453.4925 452.4367 451.425 450.0508 448.7575 448.4425 448.9108 449.1 447.1725 444.2658 448.5966 451.175 449.0992 450.285 452.6275 455.4158 456.2158 455.8325 453.8408 452.6758 453.66 456.6442 463.2483 471.5525 478.3983 484.695 491.31 495.1875 494.305 492.835 491.7858 489.7942 487.535 484.2592 479.6733 474.2225 468.8842 462.8342 457.22 455.3975 457.4108 458.81 459.2258 458.825 457.0725 455.3075 453.3033 453.725 454.4633 455.6458 457.08 457.2683 456.9558 454.61 451.9308 453.5942 454.305 453.1158 452.2233 452.8175 454.0242 456.3017 456.9725 458.81 461.8017 464.0625 465.8983 467.3367 467.9425 467.1983 464.8933 463.6175 463.3792 461.6817 460.035 461.3633 464.3133 465.145 464.3558 462.0341 460.0775 459.9375 459.2283 459.4325 459.8075 459.665 459.1075 458.1292 457.3333 456.845 456.9817 457.2042 458.1775 459.6633 459.9692 458.71 455.9883 453.8459 451.5525 451.1258 451.2983 450.745 449.4792 452.55 459.4975 465.7825 472.5067 477.985 475.5258 466.7333 456.185 446.2492 437.3517 431.14 425.9742 419.7458 416.7625 412.525 408.7217 406.405 404.3133 393.5533 393.0325 404.2783 412.7216 414.61 414.5108 413.4467 413.165 413.0167 412.3892 411.7975 411.4433 414.5908 417.2325 415.7533 412.2008 409.0375 405.8325 403.5683 401.3825 399.4883 398.9908 400.03 402.3483 405.9883 412.1375 417.4659 420.4108 418.7375 415.9684 413.755 411.7925 409.9133 408.8158 409.4325 410.9783 410.3367 407.615 405.7225 404.13 402.16 400.1442 400.4125 400.585 400.1533 400.62 399.97 399.1408 397.6175 396.2225 396.3192 396.685 397.0225 397.1725 397.2283 397.275 396.7217 396.01 395.8925 395.6792 395.3567 395.035 394.1633 393.2858 392.4025 392.24 391.3242 390.0375 388.405 389.5717 390.2325 391.135 392.9716 394.9025 396.925 400.265 403.8875 404.6558 406.1492 405.21 401.6833 400.0667 399 398.225 397.7917 395.575 391.4 388.5417 384.325 379.8167 377.8083 378.325 379.1333 379.325 380.1 381.0833 380.8333 380.825 381.1083 381.225 380.15 378.5333 376.6833 375.1 373.2667 368.75 363.125 360 359.1167 360.325 362.6584 363.7083 363.4 363.8833 363.1833 362.175 361.125 360.225 359.225 358.1833 357.1417 355.55 353.5417 351.75 350.175 348.5167 346.8667 345.425 344.3583 343.6667 342.9 341.6333 339.4917 336.025 331.6833 331.3833 329.35 327.275 323.15 323.725 322.5083 319.1583 317.275 322.3917 326.9333 331.575 335.425 334.6 334.7 335.7167 336.425 337.2 338.8083 340.7333 341.625 342.0167 343.35 343.775 343.6583 345.7083 349.7 352.9417 355.825 358.875 361.925 365.375 369.525 374.425 373.3333 372.025 371.5917 372.3667 375.55 378.1917 380.675 384.4 388.5 392.6417 396.575 398.05 397.425 396.375 394.95 392.95 391.325 391.7 391.7417 390.8 389.9417 389.2333 388.2 386.9167 385.5833
556.7684 560.1309 564.983 567.6575 560.0778 547.1866 541.12 544.3755 549.4064 552.7375 551.7437 547.9164 537.1241 526.3625 524.3647 521.8933 512.1372 498.7825 497.0242 495.745 495.3339 494.8008 493.19 490.2858 490.4975 500.0758 511.5322 524.2584 535.4941 548.1603 556.3892 561.35 564.5677 562.1992 555.9014 546.7786 536.5275 526.5125 514.7441 504.7375 500.3072 504.7397 510.4417 514.9117 513.4391 511.5067 516.4394 525.9636 535.1367 539.4528 536.9422 536.0275 536.9294 534.1111 525.3116 515.0663 506.1536 497.2258 490.3383 485.5131 481.1417 473.5633 467.1658 461.7175 458.1886 453.8322 451.6967 453.4167 457.2261 463.16 469.7911 472.3175 470.2525 468.0945 464.9297 460.3258 455.8914 451.1519 448.28 451.1011 452.2039 451.9734 451.6331 450.7989 449.4492 447.9995 446.8953 446.7558 447.2567 447.17 443.5475 442.2472 447.9695 449.5425 447.1989 447.5397 448.7408 450.1517 451.0961 451.4533 450.5689 449.6439 450.1833 454.1547 460.4106 468.0967 475.1022 481.7744 488.2767 490.5233 488.5392 486.6217 485.3958 482.5353 479.5608 476.6656 472.1578 467.4617 463.5017 459.2484 454.3133 451.9964 452.1917 454.5717 454.9697 454.8053 453.7583 452.7405 451.5033 450.6958 451.055 452.7861 454.5992 455.1636 455.4206 453.4117 449.7667 451.3792 451.6092 450.8864 450.0406 450.4659 451.9411 452.8597 455.0658 458.4803 460.3745 463.1392 465.0497 464.0747 465.6 465.1267 462.6442 460.2742 459.9542 459.3625 458.2325 459.0108 459.8069 459.6908 459.4011 458.2703 457.225 457.2783 456.9947 457.0233 456.6853 456.3511 456.1425 455.3117 454.7509 454.5108 454.718 454.975 455.31 456.1297 457.1144 455.7933 454.3111 452.8106 450.5758 448.7717 447.8611 446.8683 446.7186 449.5616 456.6842 462.7997 468.7433 473.8283 474.38 467.2111 458.51 449.1797 439.0769 432.9842 426.865 419.3795 416.1125 412.1775 409.4181 407.1717 405.1197 395.34 389.8766 397.4272 406.2558 409.4142 411.7475 411.8958 411.9375 411.725 410.7383 410.2017 410.3664 412.3053 415.66 416.3939 413.6389 410.315 407.173 404.4611 402.1383 399.6656 398.1622 399.2283 403.1931 407.8308 413.4308 416.3683 420.4953 419.3725 416.7094 414.1122 411.78 409.3658 408.0022 407.8875 408.4269 406.8258 404.74 403.3306 401.748 400.6875 398.8339 398.1914 398.4017 398.0453 398.3308 397.9825 397.38 396.5136 395.7033 395.4222 395.8606 396.1483 396.0111 396.1514 395.9975 395.863 395.4172 395.2925 394.8136 394.6608 394.2625 393.2114 392.0786 391.0842 390.7703 389.1444 386.8883 385.4461 385.7606 387.47 388.8628 390.5544 393.3267 395.4003 399.3464 403.7425 404.822 406.6467 406.565 404.5056 402.8 402.6 400.1083 396.8361 394.025 390.575 388.1139 384.2167 380.1111 377.6222 375.7417 374.75 375.6167 377.2833 378.7833 378.3667 378.6833 379.9861 380.3639 379.6833 378.9194 377.1917 375.3917 373.1194 369.8195 367.0417 363.4444 360.0778 357.325 358.1139 359.5444 360.25 361.4 361.1778 359.95 358.9167 358.1917 357.3833 356.4361 355.5889 354.4083 352.8528 351.3083 349.4167 347.5528 345.7166 344 342.5889 341.7667 341.0333 340.1889 339.2694 337.2667 334.1667 331.6083 330 329.1 323.8583 321.3416 321.6028 314.6694 318.35 322.4195 325.3472 328.8833 332.1555 331.9083 333.05 333.9139 334.5972 335.8167 338.5222 340.2694 339.0667 337.6 338.6028 340.2333 343.8639 346.5361 348.9833 351.7778 354.4055 357.0417 360.2195 365.5222 371.0583 371.4 370.8139 370.6167 370.1833 369.7389 372.75 375.6083 379.1194 383.375 387.7 391.15 393.4417 394.2333 393.525 392.15 390.5667 388.5694 386.9 386.5361 386.6611 386.3833 385.1472 383.8917 383.275 382.7833 382.3861
547.6358 553.6564 559.4216 564.2667 560.0908 549.5917 536.5059 534.1047 537.3175 540.9459 541.22 546.613 547.31 544.0931 535.9442 523.2817 514.7484 502.9492 498.6283 494.7547 493.6886 493.2067 491.59 488.8319 488.9475 495.9672 507.2939 520.0734 530.9805 540.3813 544.9608 550.2792 554.7264 552.3167 548.9473 543.9578 535.6225 525.0886 514.0739 505.0417 497.0733 498.7092 503.3083 505.5394 504.6161 504.7975 511.4011 522.1481 530.1775 531.0389 526.9183 525.3942 527.3519 529.505 528.6866 523.11 513.2941 505.1058 498.2022 492.3269 486.3067 476.6364 469.6308 464.6192 460.8728 454.7511 450.375 450.06 457.3919 463.9233 468.1006 466.7278 463.2558 460.67 457.6683 454.755 451.8319 448.9828 445.9708 448.9992 449.9858 450.0442 449.9525 449.7308 448.4758 446.8055 445.5547 445.5333 445.9425 445.6636 441.1175 440.4367 446.2889 447.73 446.2281 445.1858 445.3158 445.9403 446.8908 447.1117 446.9367 446.5194 447.6967 452.2725 458.4375 465.7142 473.0186 479.8439 484.275 483.9922 481.9297 479.3692 477.0586 475.08 472.4342 469.4314 465.72 461.9883 458.3928 454.4817 452.7283 450.2847 448.2364 450.2658 452.1731 451.9136 451.5758 450.8839 449.9036 449.2283 449.7669 451.6347 453.2583 453.6236 453.1205 450.8708 447.3725 449.9992 449.98 448.9247 447.8942 447.7192 448.4775 450.5433 454.9316 457.6089 458.9633 460.9517 463.0247 462.4639 463.2642 463.9617 460.7092 457.4083 457.0853 457.5514 457.9583 458.0556 456.7247 455.8742 455.2278 454.8272 454.68 454.9091 454.7794 454.6033 454.68 454.2675 453.5475 453.0289 452.5689 452.2433 452.1803 452.5481 453.2408 453.7086 454.0694 453.3292 451.6903 450.8094 449.9858 448.4442 445.5264 444.5883 443.4683 447.3381 454.9283 460.4019 465.0878 469.2125 470.3997 467.3428 460.8342 452.1228 442.1897 434.6058 427.5844 419.4781 415.5875 411.5581 409.2631 407.0175 405.3678 399.7289 388.7067 389.1261 400.9933 406.6342 410.3347 410.7044 410.7275 410.6311 409.6189 408.8117 408.51 410.1608 413.61 415.7564 414.2897 411.3733 408.0889 404.8708 401.9125 399.2625 397.3961 397.9767 403.8239 409.3369 413.1708 415.5144 418.325 418.5567 417.0258 414.5842 412.5033 410.1295 409.0103 407.5192 405.485 403.8572 402.2133 401.1472 399.9064 399.04 398.0472 396.2644 396.3158 395.9228 396.0586 395.7517 395.06 394.4206 393.6025 393.8025 394.1103 393.9408 394.2242 394.6589 394.7842 394.6983 394.6017 394.3075 393.6953 393.4542 393.27 392.715 391.5478 389.9492 388.2214 385.0169 384.3433 383.3044 383.8958 384.4158 387.1136 389.7328 392.8467 396.5106 400.3914 403.0592 404.3811 406.1886 405.3408 403.3333 401.0639 399.7 397.0861 393.8417 391.1333 389.1889 386.9528 383.65 379.8194 377.4639 375.1417 372.8472 373.2778 374.6333 375.5305 375.8139 376.5333 378.4195 379.7611 379.05 377.2278 374.7833 372.8917 370.625 368.8222 367.1833 365.1 362.2972 359.575 356.7972 355.6444 356.7333 358.8361 359.2945 358.125 357.2333 356.5861 356.0167 355.2667 354.4695 353.4083 352 350.6583 348.575 346.6861 344.6944 342.825 341.2056 340.2139 339.2583 338.6361 337.8167 336.5083 334.4639 331.5139 329.55 329.1 324.6056 319.4333 316.775 314.0667 320.1083 322.8167 324.9417 326.3667 329.2778 331.3694 331.6167 332.7111 334.7861 335.95 337.475 339.1945 336.25 337.3333 341.0028 342.2167 345.6528 347.5389 349.2833 351.6805 354.1417 356.7667 359.7389 366.2833 369.3583 368.9611 369.8667 369.575 367.7833 366.5917 369.925 373.9111 377.4305 380.9167 384.3611 387.4278 388.7333 389.7333 389.0667 387.7417 386.2917 384.3 382.8333 382.9917 383.3833 383.25 382.1167 380.6167 379.85 379.9167 379.7139
541.995 549.2783 553.64 558.1975 560.8467 553.2342 539.53 527.955 524.4966 526.59 529.3292 536.0083 542.07 546.1359 543.5817 524.49 515.0983 512.0333 507.88 499.41 493.9483 492.9975 490.8092 487.6133 488.315 491.2208 501.3242 512.855 524.4359 530.5616 533.685 540.4375 544.6175 541.8175 537.9717 535.9675 533.4275 525.2709 515.0933 505.7275 496.7867 491.3267 494.8875 496.1358 495.5725 499.13 506.7375 515.3408 522.1425 522.4817 517.6592 514.7875 515.77 519.705 523.605 525.0175 519.4434 512.82 504.9675 496.245 486.9725 479.125 472.8117 466.86 461.225 455.605 450.6025 446.6042 452.2258 457.3275 458.0125 457.4808 455.525 453.5192 451.8592 450.8125 449.27 447.9967 445.21 445.59 447.9792 448.895 448.9775 448.2758 447.4775 445.925 444.0817 443.74 444.3942 444.5458 440.285 437.5367 441.95 445.5725 444.4617 443.2425 442.31 442.7317 443.2983 443.58 444.02 444.5525 446.745 451.2792 457.1583 465.4675 472.435 476.38 477.0975 475.9525 473.7775 472.0425 470.1158 467.7683 465.15 462.2025 459.2516 456.7975 453.9183 452.0325 450.76 448.5667 446.7708 447.225 450.0583 450.775 450.3625 449.3083 448.565 447.5625 448.435 450.4958 452.2 451.8 450.6942 448.8125 445.7433 447.0891 447.995 447.0383 445.5875 445.48 448.4017 452.2892 454.9525 455.9617 456.7742 458.38 459.6067 459.9867 460.6625 460.8092 458.33 454.5575 453.36 455.8067 457.6675 456.7617 455.215 454.1825 453.0667 451.8658 452.055 452.8608 452.5558 452.775 452.865 452.6458 451.44 450.38 449.5908 449.4275 449.6808 450.21 450.71 450.7892 451.3734 451.3575 449.8417 448.8475 447.8575 446.5758 444.8108 442.7575 440.5625 444.92 450.4275 454.7225 459.0533 462.4975 463.5792 464.25 461.2425 454.5475 446.22 437.5525 429.2017 420.9984 415.6525 411.5608 408.5017 405.885 404.3683 402.5058 394.2725 385.5475 396.955 406.215 408.7792 408.3025 407.765 407.7608 407.3116 406.525 406.3133 408.2408 411.59 413.8558 413.6692 411.9675 409.3242 405.6883 401.4975 398.0733 396.0025 399.2975 406.4842 411.6125 413.725 415.1833 415.9325 416.2975 415.8792 414.7308 413.0025 410.895 409.6758 407.0325 404.5892 402.4117 400.4225 399.2167 398.2267 396.7575 395.9717 395.0167 394.2275 394.0133 393.4659 393.1575 392.795 393.5967 393.5675 392.4925 392.6758 392.3925 392.605 393.1433 393.345 393.305 393.2733 392.975 392.4683 392.1208 391.9125 391.8583 391.0733 389.8325 388.575 385.9258 385.285 383.2525 382.1608 384.355 387.4533 390.3267 394.1175 397.2042 400.5658 400.2075 399.3825 399.075 398.55 397.1083 395.6417 394.975 392.85 390.5916 388.775 387.3333 385.5833 382.15 379.4667 377.2167 374.85 372.6917 371.375 372.05 372.5583 373.0583 374.7 376.5917 376.9833 375.3 373.6583 371.8417 370.225 368.7333 367.3 366.1 365.025 363.075 360.6 358 354.9917 353.975 355.5 356.8833 356.375 355.8667 355.4 354.95 354.3333 353.7083 352.8 351.5583 350.5833 348.525 347.0083 345.7583 344.55 342.7583 340.4583 338.125 336.625 335.6833 334.425 333.0833 330.9 329.15 328.775 324.5667 318.15 313.3167 315.9417 321.125 323.85 325.5833 326.9 332.2167 334.175 334.275 335.4167 336.7833 337.35 337.7917 335.7417 334.525 337.8083 340.925 343.95 346.6833 348.5417 350.55 352.5583 354.375 356.45 358.8583 365.0667 367.325 366 366.75 366.225 364.325 363.275 367.2 371.75 374.4333 375.55 379 383.0917 384.2 385.1833 384.5667 383.75 382.85 380.6083 379.1 379.5083 380.4667 380.55 379.2583 377.7167 377.25 377.325 377.0167
538.25 544.8683 546.3583 550.9033 556.2567 555.7989 545.1083 534.3734 523.8411 517.2008 518.2272 526.6925 532.3342 540.2523 547.8664 538.465 524.2303 520.0591 513.265 502.8 496.5706 493.1842 488.7908 484.2642 482.945 488.1717 494.2864 500.295 511.255 517.4308 525.2509 533.4722 535.5641 532.5933 528.1572 526.6703 527.045 525.4058 517.9266 508.155 497.4889 488.1275 485.9667 487.6878 488.6234 494.3125 500.6725 506.3447 511.8117 513.5286 509.4861 505.66 505.7339 509.9189 515.04 519.7014 522.0036 517.7925 509.1508 499.7061 490.6133 483.0275 476.5925 468.755 461.8134 456.3853 451.2342 447.1969 444.8569 448.44 449.1967 449.7297 449.7442 448.9322 448.2694 447.8242 447.3136 446.2897 444.495 443.3961 446.6572 446.8708 446.8386 446.5708 446.5375 445.2722 443.0572 441.4175 441.6028 442.4989 441.0733 435.8422 436.5403 443.2525 442.7953 441.1228 440.2375 440.1008 440.4308 441.1942 442.0103 443.2522 446.035 450.7344 457.0014 464.5583 467.8069 468.2633 468.4492 467.7558 466.2044 464.9867 463.1008 459.8525 457.3533 455.6361 454.2528 452.6692 451.2244 450.0986 448.6708 446.8 444.9497 445.1967 448.2547 449.3183 448.345 447.5467 446.9472 445.2925 446.1183 449.2111 450.6542 449.9597 448.9497 448.1708 444.5711 443.0305 445.6933 444.6534 444.1072 445.8741 449.4675 451.8697 453.29 454.0158 454.5281 456.1833 456.2664 457.0483 457.8733 457.2497 454.8772 451.3442 450.3931 452.823 455.71 455.9706 454.4747 453.2534 451.7583 450.1933 449.7592 450.5153 450.1378 450.3592 450.6875 450.5089 449.5742 448.5353 447.685 447.545 447.5939 447.7511 447.8542 448.2225 449.1703 450.0233 449.0875 447.4494 445.4042 443.8339 442.7022 441.2766 439.0622 441.3617 444.7808 448.0514 452.1119 454.2367 455.4003 457.8128 457.455 455.2444 449.1878 440.6617 430.8175 422.42 415.8842 411.4261 408.1833 405.3817 403.6494 402.7508 397.9217 385.7439 394.1403 401.9083 404.4889 406.1547 405.79 405.5419 405.1086 404.2633 404.4444 406.0431 409.3575 412.0233 412.0806 411.4575 409.7011 406.1211 401.2158 395.8759 395.7242 401.9183 408.5736 412.5603 413.3417 412.8328 412.3025 412.4133 413.3658 413.8039 412.8183 410.4786 408.1289 405.4625 403.3642 401.3078 399.2192 397.3417 396.4622 394.7208 393.7572 393.2633 392.3142 391.765 391.9605 392.1342 391.4731 391.8797 392.095 390.6381 391.2886 391.0775 391.0233 391.468 391.6767 391.6617 391.6144 391.5467 391.0609 390.7556 390.5633 390.5503 391.2267 390.2992 389.2522 388.1222 386.0892 383.0756 379.5828 383.29 387.4403 390.615 392.0758 393.7242 395.1278 394.9808 394.6144 394.0017 393.3175 392.2028 391.3445 391 389.6833 387.7444 386.0417 384.4639 382.8806 380.775 378.6833 376.8167 374.7667 373.175 370.6805 369.5083 369.6417 369.6083 370.6167 371.7917 372.5667 371.0083 370.0889 368.9972 367.725 366.7306 365.7639 364.85 363.8667 362.9222 361.2917 358.8417 355.8528 353.3833 351.5805 353.2639 354.2083 354.3195 354.2833 354.3833 353.9833 353.5583 352.6917 352.0611 351.0361 349.8083 348.6361 347.4194 346.1083 344.2834 341.4111 338.7417 336.4333 334.3972 332.5917 331.2166 329.7861 328.625 328.3528 324.0694 317.6583 312.525 316.7472 321.5167 323.3139 325.2805 327.1417 330.8639 333.3556 334.6833 335.8583 336.5444 337.2917 336.5945 333.9833 334.8417 338.7972 342.0833 345.1 347.0472 348.5305 350.5667 352.7833 354.4139 356.2167 358.9639 364.2389 363.375 362.0806 362.5778 362.5417 361.2556 360.5555 364.35 369.8528 370.6306 370.5583 373.6667 378.7972 379.875 380.6611 380.8583 381.1333 380.4639 377.7222 375.4917 376.025 377.55 378.3917 376.9278 375.2472 375.025 374.9139 374.2361
531.7509 536.6094 540.0381 544.6592 549.3261 552.0397 549.2792 541.3825 530.6872 518.3733 512.9303 516.1672 522.96 534.2542 545.8286 545.4817 537.4055 531.7742 517.7009 502.9817 496.6517 492.4375 486.1539 477.8522 478.8308 487.0275 488.7484 493.6733 499.365 508.0617 522.1733 529.8614 531.0111 525.8925 521.1225 517.9169 518.8141 518.9711 517.3669 511.5083 502.9081 493.173 484.52 481.1225 482.1953 486.8792 490.852 495.9531 501.1792 504.965 502.1028 497.2333 498.0542 502.0147 505.6925 511.2494 516.8406 515.6917 508.8733 503.3208 495.8225 487.0992 478.9005 469.7792 462.7119 458.2061 453.67 448.2492 443.5197 441.6808 442.06 444.4395 445.4425 445.1636 445.1622 445.0925 444.9686 444.6917 443.0783 441.9858 444.9206 444.8992 444.9222 445.1972 445.2942 444.1105 442.5436 440.5 439.5661 440.2947 440.595 436.88 435.0017 441.2625 441.8317 439.9822 439.1234 438.9103 439.2147 439.9233 440.9403 442.6081 445.4017 450.0869 455.5003 459.6033 459.9967 460.1011 460.34 459.9317 458.8456 457.175 454.2628 452.9158 451.8675 451.5428 450.4858 449.0975 448.1411 447.3142 446.3283 444.6995 442.6264 443.33 446.4947 447.2831 446.925 446.4197 445.3792 444.2325 443.89 446.7819 448.9033 447.7372 446.808 446.525 444.653 441.2217 441.6717 440.2536 442.9464 445.79 448.5656 450.1095 450.8208 451.1044 451.8342 454.0525 452.2569 454.1878 454.7983 453.5089 451.3181 449.5117 448.5497 449.3997 451.16 452.6953 453.0408 452.0034 451.0242 449.4158 447.9608 448.3669 448.3517 448.5025 448.7325 448.525 447.87 446.8789 445.9894 445.6708 445.4619 445.2269 445.1925 445.7886 446.9253 448.3225 447.8197 446.0855 444.1942 442.2736 440.8442 440.0833 438.0461 438.6139 440.635 442.295 444.3178 447.265 450.3983 454.5064 453.2508 450.5883 448.1372 441.3158 431.8542 423.4734 416.6417 411.6961 407.4878 404.7208 403.3247 402.4458 397.0417 386.5694 392.0378 399.4883 400.9972 402.7836 403.0433 402.7031 402.3125 402.8383 402.942 404.208 407.6842 410.1575 410.5367 409.8908 408.188 405.1569 399.5742 393.9442 397.0647 402.6117 408.1336 409.4783 408.365 407.0544 407.3697 407.9558 409.7739 410.4725 409.1575 406.3689 404.3431 402.8067 401.3786 399.7306 397.8767 396.0922 394.6364 392.9458 391.7775 391.2108 390.9142 391.2758 391.1803 391.205 390.5644 390.1281 390.585 390.2892 389.79 389.855 389.5172 389.6606 389.9042 389.9089 389.4881 389.51 389.4736 389.1539 388.9875 390.0975 391.8141 392.46 391.3725 388.655 384.9433 381.5247 378.3533 380.8817 383.8378 386.4867 388.1342 388.6358 389.2264 390.1708 390.5889 390.1561 389.6225 388.8 388.05 387.7417 386.975 385.3139 383.75 382.4917 381.5194 379.625 377.7167 375.7583 374.4167 373.1444 370.8917 368.3917 365.35 365.2556 366.5667 367.7805 368.7389 367.575 367.0778 366.35 365.5 364.6778 364.05 363.6833 362.7333 361.7306 360.6083 359.3194 357.1389 354.4083 351.4972 349.5778 351.2583 353.3 354.2083 354.4 354.0917 353.6917 353.3833 353.4778 353.0389 351.9083 351.0139 350.0944 348.95 345.9167 342.6111 339.5583 336.8667 334.3195 332.0917 330.475 329.1167 328.1833 327.0139 323.3417 316.8917 311.7472 316.85 321.5167 323.1139 324.5 326.1333 329.0167 331.6222 333.6417 334.5778 335.3833 335.4667 334.3139 332.0111 335.4167 340.4055 343.6083 345.525 346.6778 347.9889 349.6167 351.0639 353.1917 355.5333 357.5417 359.5945 358.5 358.4333 359 359.4333 359.2694 358.7472 363.3167 366.8445 366.0583 367.5917 371.7917 375.3611 375.5917 377.2528 377.9806 378.35 378.15 376.0111 373.4417 373.5667 375.1584 376.05 374.6639 372.9 372.7583 372.3389 371.55
525.0725 529.025 534.415 539.49 543.6483 546.9467 548.2275 542.0333 532.7466 519.9225 510.6275 508.9442 515.41 526.7133 540.0258 542.635 534.89 527.4033 516.18 501.7942 496.6625 491.465 487.8342 476.815 475.5375 484.7225 486.0242 487.7525 492.9933 502.8442 515.845 523.6167 526.0417 520.65 514.4958 509.7058 508.755 509.025 508.2942 507.9425 505.895 498.5467 490.145 481.235 476.2033 477.7775 481.3933 486.6283 491.85 496.6591 495.2283 490.7025 490.6433 493.97 498.1575 503.6492 509.5642 508.375 503.465 499.0483 492.8225 484.7842 476.6292 467.8675 463.36 460.2792 455.6825 449.2567 443.7133 441.2325 439.2308 440.1725 442.5975 442.5017 442.4283 442.0625 442.505 442.7242 441.465 439.8475 442.17 443.7125 444.6008 444.8617 443.9375 442.705 440.8758 439.225 437.7367 438.6592 439.21 435.59 433.2967 438.8775 440.25 439.015 438.1875 437.8725 437.8575 438.1375 439.13 441.8766 444.46 447.8767 451.2725 452.67 452.9133 453.4442 453.2825 452.425 450.2433 448.8875 448.4692 448.3658 448.6075 448.5617 447.5475 446.195 445.0092 443.9958 443.39 442.1425 440.4467 441.605 444.7758 445.8317 445.745 445.45 444.23 441.685 440.0358 442.605 445.17 444.9892 444.9775 444.49 443.5317 440.9983 438.1575 437.0833 440.97 444.0775 446.4892 448.2667 448.475 448.3458 449.425 451.5125 450.4875 451.1542 451.095 449.515 448.0592 447.1525 446.2417 446.995 448.215 449.1142 450.7433 450.7825 449.83 447.72 446.125 446.2967 446.7133 446.8975 447.0942 446.71 446.1375 445.265 444.2317 443.675 443.3558 442.8767 442.5375 443.0233 444.5625 445.8975 445.9408 445.0883 443.5775 441.4833 439.5292 438.055 436.3808 435.3925 436.16 437.3109 439.1792 441.345 445.7317 449.06 449.705 446.4333 443.7258 440.635 433.0858 424.5117 417.1575 412.1533 407.6558 404.89 403.095 401.845 394.2475 387.0458 385.7775 397.12 398.8833 399.6442 399.97 400.05 399.985 400.075 400.19 400.7575 404.325 407.6216 409.5867 408.495 406.345 403.0042 397.935 393.0783 396.5283 401.285 403.1042 403.4758 403.3675 403.005 403.4817 404.1475 405.6717 406.5117 405.1625 402.905 401.2775 400.145 399.1333 397.645 395.98 394.3233 392.5533 391.235 390.0917 389.7841 390.5375 390.745 390.3383 390.2125 389.795 388.5817 388.2175 388.6408 388.3091 388.53 388.0092 387.5942 387.6925 387.5992 387.22 387.0925 387.6859 387.5008 388.285 390.2317 392.0333 392.98 390.0975 385.4458 383.14 380.3342 377.6617 378.0925 380.94 382.5958 383.9325 385.3567 386.4475 387.1 387.3442 387.3775 386.82 385.8667 385.4 384.95 384.5417 383.2583 382 381.2 380.2417 378.5 376.675 375.025 374 372.7667 370.525 367.9 364.775 362.5167 363.1 364.4333 365.5083 365.15 364.875 364.3417 363.475 362.8167 362.675 362.425 361.5083 360.2583 359 357.9083 356.9666 354.3 351.5917 348.5167 349.35 351.9333 353.4333 354.125 354.15 354.1333 354.45 354.85 355.0667 354.45 353.875 352.7333 350.5 346.6417 343.2333 340 337.2667 334.6417 332.4 330.4917 328.775 327.8 325.9917 321.9167 315.8 312.0583 316.5083 321.025 322.25 322.85 324.425 328.75 331.2333 332.55 332.8667 332.65 331.7 330.75 330.6917 335.65 339.5667 341.3 342.4 343.6667 345.125 346.55 348.0583 350.3 352.65 355.1667 355.8667 355.2 355.325 356.1333 357 356.575 357.0833 362.35 363.075 362.325 367.5 371.5917 373.675 372 374.2 374.9667 375.1 374.8167 373.8417 371.85 371.4417 372.8 373.275 371.75 369.9333 369.95 369.7167 368.8833
519.1859 523.3113 529.4433 534.8625 538.6456 541.6203 542.9092 539.3217 530.627 518.5383 508.8108 504.5628 510.56 520.9531 534.2675 538.0217 530.4495 523.4742 513.0508 502.8511 493.9511 492.705 491.0505 478.4458 470.7191 475.5953 482.9153 484.5067 487.6967 498.5031 506.6375 514.647 518.3222 514.8825 509.4581 504.0142 501.2417 499.4983 497.6714 498.1767 499.032 498.9383 495.0242 486.935 477.7142 470.6342 471.5431 477.3633 483.3042 488.0756 487.6567 484.4217 483.3603 485.7753 491.885 498.7864 502.8322 500.8125 496.458 491.2994 485.8975 477.9497 472.2703 467.0183 462.8247 460.9119 453.6033 446.9517 442.9569 440.5925 438.1419 438.4694 440.3066 440.0647 439.9819 439.9908 440.4206 440.6719 440.1142 436.4855 439.368 442.7008 443.8336 445.0011 444.3683 441.1772 438.7191 436.7583 435.4433 435.6069 436.475 432.8986 431.5667 437.03 438.2892 437.5492 436.9725 435.7333 435.2878 435.5225 436.7142 438.9564 440.4933 442.7775 445.3392 446.6117 446.98 447.2914 446.6583 445.2461 444.1758 444.4833 445.0533 445.4589 446.0683 446.2542 445.0258 443.0258 441.6217 440.8969 441.2767 440.5925 439.1128 439.1217 441.6111 443.8206 444.665 444.0317 442.5544 440.225 437.4733 438.8197 441.6408 443.0772 442.9553 441.8842 441.3839 441.1389 438.985 435.4131 437.0769 440.3733 444.1308 446.4489 446.3208 445.9178 447.045 449.0183 448.7042 448.3942 448.0375 446.7753 445.3697 444.56 444.4669 444.95 445.6241 446.5692 447.4819 447.9533 447.89 445.8839 443.3725 443.325 445 445.3967 445.4753 444.9547 444.38 443.722 442.7169 441.7 441.2636 440.7986 440.1825 440.2803 442.0789 443.4767 444.0175 443.3745 442.5775 440.9695 439.5114 437.6558 435.9961 432.5156 431.1058 432.8378 434.3794 436.5208 439.5219 442.1803 444.8217 443.3631 439.1547 438.3917 434.0328 426.7583 418.3608 411.1939 407.5711 405.1425 403.4097 401.6053 393.2408 386.4236 382.5214 391.81 397.3958 397.7353 397.855 397.7567 397.9603 398.3117 398.7533 399.125 401.1575 405.4081 406.6964 406.6617 404.8103 400.857 396.3 392.5 395.053 398.1958 399.0789 399.3108 399.4658 399.7542 400.088 400.8267 401.7792 402.5106 402.0758 400.3883 398.605 397.4958 396.4783 395.1719 393.45 392.1058 390.6995 389.8242 388.9989 388.9533 389.9567 390.1475 389.5228 388.92 388.2881 386.8783 385.2417 386.8703 387.4478 386.5717 386.365 385.7139 385.36 385.2367 385.7811 385.9917 385.9939 386.3658 388.2575 390.3019 391.3025 388.2583 385.1572 382.9269 381.2033 379.52 376.7631 376.0033 378.1353 379.4411 380.9267 382.3511 383.2742 383.9333 384.7397 384.4669 383.7467 382.4333 382.4722 382.6167 382.1222 381.5222 380.625 379.7139 378.6722 376.9167 375.6333 374.3611 372.4167 370.2639 368.2417 366.6583 364.6861 362.0972 360.925 362.1139 363.1805 363.1 362.7972 362.3333 361.4083 360.9417 360.8 360.6667 359.7833 358.5778 356.8917 356.1222 355.6555 353.6083 351.3111 348.1639 346.65 349.9417 351.9222 353.4333 354.1805 354.8944 355.725 356.25 356.65 356.2 355.6667 354.2056 351.2583 347.4361 344.0639 340.7333 337.625 334.8667 332.5833 330.7028 328.9333 327.7917 326.2611 321.45 314.3333 312.5361 315.2778 319.075 321.7195 322.0611 323.1333 327.7611 330.3583 330.8333 330.6694 328.4028 327.0583 327.9222 330.8305 334.925 337.2972 338.2833 339.3583 340.6972 342.1222 343.3583 345.0806 347.6583 350.2667 352.3611 352.3611 351.9833 352.5083 354.9472 355.8167 354.4222 355.0861 357.8417 357.625 360.7861 365.7833 370.6695 371.9056 369.0333 369.9806 371.9389 373.1833 373.1917 372.6861 370.0083 369.4695 370.65 370.9167 369.5305 367.9528 366.975 366.9556 366.2583
513.0491 518.455 522.5083 528.9484 532.9328 535.7439 537.6367 535.6253 526.1797 515.6766 506.4042 499.0794 505.1333 515.5858 528.1906 533.2484 526.6922 517.6794 508.3892 500.7447 494.0703 493.8367 491.4961 483.8497 471.8766 468.9231 476.0058 481.2433 483.4086 490.1106 498.675 506.7825 511.9322 509.7467 505.5056 499.7514 495.3808 490.9825 488.018 487.755 488.7183 490.0842 491.0342 489.0217 480.9697 472.1667 465.4511 468.0403 474.335 479.9256 479.4972 477.7583 478.1125 481.5156 488.2383 494.9319 495.3711 493.5858 490.87 484.0667 477.9317 472.412 467.7522 464.5475 462.0428 458.4183 450.1617 444.8383 441.7578 439.2833 436.9881 435.0536 438.2125 438.0506 437.995 438.095 438.4075 438.7769 438.3658 436.0561 437.5983 441.0083 442.7739 445.1364 444.6125 440.2289 436.7831 433.8708 432.5628 433.3336 434.6858 430.0603 433.7875 435.7175 436.0864 435.4733 434.2617 433.2361 433.0708 433.2892 433.87 434.7744 436.2458 438.313 439.7014 440.605 440.9072 441.5928 440.7542 439.46 439.7508 441.0142 442.5108 443.762 443.5583 442.5561 441.1575 439.845 439.1325 438.5136 439.1358 439.0053 436.8394 436.3658 438.5256 440.0531 441.4258 442 441.1508 438.64 436.0167 435.1219 437.7875 440.2572 440.5078 440.0708 440.1895 439.9919 438.6033 435.1231 433.852 436.2142 439.8083 443.4103 443.7867 443.5172 444.6733 446.0284 446.2403 446.0775 445.5667 444.6489 442.7883 441.8825 442.0169 442.5975 443.3033 443.9953 444.4403 444.435 444.8797 444.352 439.6909 438.5186 441.9072 443.0333 442.9831 442.6153 442.76 442.513 441.3881 440.1908 439.4103 438.8472 438.31 438.5284 439.7239 441.1367 441.7953 441.4372 440.8408 439.7764 439.5264 438.8217 436.0544 432.0464 429.7159 429.0297 430.23 431.8075 434.5753 437.43 439.8458 440.7603 437.7992 434.54 433.8531 429.2783 423.7933 415.5486 408.0678 405.5392 403.6453 401.8086 394.1808 386.4864 383.3153 385.6125 392.3347 392.2883 389.3275 392.8722 395.6895 396.6608 397.1919 397.7453 399.135 402.1233 405.3853 405.2858 403.2308 399.9531 395.2383 391.4875 392.5189 394.8292 395.7436 395.7975 396.4583 396.9553 396.9633 397.1392 398.2108 398.8817 398.8708 397.7836 396.345 394.9642 393.5778 392.0253 390.5467 389.6458 389.0653 388.55 387.3361 387.8017 388.87 388.9953 387.8253 385.905 385.8111 385.1164 384.3467 385.7478 386.48 386.6958 384.7533 384.4917 383.7125 383.45 385.1536 386.0183 384.4261 385.1289 386.9408 388.1625 385.613 383.33 382.1275 380.55 379.3992 377.7442 375.2083 374.555 376.2183 376.562 378.0283 379.2711 379.6283 379.85 380.2939 381.2153 380.6792 379.65 379.8139 380.0167 380.0528 379.9028 379.2333 377.9389 376.4611 374.9667 374.0417 373.4833 370.9417 367.8167 366.2 364.8833 364.0389 362.575 360.0667 359.2389 360.6417 360.5833 360.7195 360.3639 359.5333 359.2583 359.4417 359.5417 358.8778 357.8 356.35 354.7333 354.1278 352.8833 351.25 347.7167 344.9917 348.0861 350.6306 352.4333 353.7639 355.2361 356.4167 357.4167 358.3861 358.75 357.975 355.3944 352.2 348.4917 345.2667 341.525 338.2556 335.2472 332.7083 330.8639 329.0972 327.7 326.2472 322.0833 314.075 310.9139 311.2889 312.075 319.375 321.4055 321.4167 324.275 327.6722 328.1167 326.325 325.175 328.25 331.1583 332.3306 334.1 335.425 335.8445 336.55 337.7694 339.2778 340.9667 343.1 345.5917 347.925 349.2861 348.8722 348.7083 350.0583 352.1528 352.0417 352.1528 352.6639 354.6833 357.6194 361.6583 366.2667 370.4028 370.9528 367.025 365.8889 367.925 370.225 371.4695 370.9 368.15 367.7472 369.0667 369.55 368.1444 366.6028 365.8583 364.9889 363.9305
506.6575 511.4292 517.2008 522.5475 526.9692 529.425 531.6975 530.3325 522.9459 513.9725 504.8992 495.3383 500.835 508.74 520.6617 527.7675 523.765 513.5709 503.7125 494.6667 497.81 492.7925 491.8333 489.8275 479.03 467.87 468.8642 478.195 481.7883 483.5883 491.5075 499.1308 503.7209 504.0825 501.9358 497.3133 489.185 482.9442 480.1575 480.1025 480.885 481.9875 482.765 482.7717 478.4792 471.285 464.52 461.3508 465.3725 469.3233 470.4592 471.445 473.5225 478.135 484.78 488.475 486.9983 486.4225 486.4008 479.7733 472.7375 467.085 463.2275 460.975 459.1308 454.105 447.185 443.2733 440.6125 438.47 435.6275 434.2383 436.345 436.1183 436.0616 436.1625 436.4258 436.7008 435.07 433.5058 436.6742 439.16 440.6875 443.1808 443.335 438.885 434.1117 431.225 429.8717 431.555 431.6225 428.7317 432.9875 434.4475 434.1783 433.0292 432.1075 431.6233 431.3575 431.4425 431.7942 432.4033 433.43 434.4858 434.945 435.7525 436.5308 436.6717 436.45 436.3908 437.2067 438.2625 440.035 441.76 440.42 438.7467 437.8367 437.1025 436.6808 436.54 436.9275 436.6942 435.3783 434.175 435.7467 438.2183 439.215 439.7533 439.1658 436.755 434.3775 432.6575 434.295 437.92 438.0525 438.0175 437.995 438.0617 436.9775 434.1392 432.0783 433.2325 438.2325 441.07 441.4 441.355 442.475 443.9175 443.335 443.4508 442.1575 441.085 440.08 439.55 439.6575 440.3 441.1025 441.8883 442.5775 441.67 441.7625 441.38 437.7075 434.8808 439.5058 440.805 440.5708 440.6092 441.2125 441.1117 440.3242 439.06 437.7625 436.7217 436.17 436.3433 437.4733 438.5975 439.8008 439.4958 439.24 437.9008 437.1675 436.3725 433.8067 431.8692 429.54 427.0108 425.5733 427.165 429.0858 434.01 434.7425 438.0375 435.94 430.94 429.1192 428.6033 426.935 420.3667 410.4417 406 403.3042 401.6483 395.4 386.8391 383.09 381.395 383.0833 382.8292 382.7225 382.8325 388.6517 395.1175 395.6 396.0692 398.1875 400.0433 403.6267 402.4675 400.925 399.5325 394.875 390.43 390.04 392.3375 393.735 394.4892 394.6575 394.4425 394.1958 394.06 394.1908 395.1375 395.5125 394.9375 393.3517 391.63 390.3625 389.255 388.4175 387.7175 387.6925 387.3625 386.3033 385.2242 386.0075 386.0533 384.8017 383.87 383.5342 383.3742 383.6575 384.7658 386.0142 386.6975 385.7142 383.5108 382.3 382.4017 384.7358 384.5925 381.6367 381.2908 382.565 382.2642 381.2433 380.5625 379.84 378.9183 377.9375 376.3483 374.0625 371.27 373.09 374.355 375.56 376.4942 377.3483 378.0525 378.5483 378.9333 378.5 377.5083 377.1167 377.675 378.65 378.1833 377.125 375.1083 373.225 371.8 370.4167 369.5083 368.075 365.8917 364.5 363.35 362.4083 361.625 359.625 357.375 357.7667 358.325 358.7167 359.4083 358.25 357.5917 358.0833 358.275 357.55 356.9167 356.05 353.6 352.4 351.675 350.95 347.4 343.375 344.8917 348.1833 350.725 352.5167 353.9333 355.775 358.45 359.1167 358.375 356.175 353.05 349.925 347.0917 344.6 341.825 338.7167 335.475 332.975 331.2667 329.6833 328.2 326.175 322.7417 316.175 312.9417 313.1417 309.5 316.2333 321.0083 319.95 320.975 322.0917 322.575 323.1833 324.175 327.75 331.5333 332.3333 332.9 333.2167 333.4833 333.975 335.425 337.625 339.65 341.3417 343.6333 345.225 346.2333 345.7333 345.8 346.8667 348.3083 348.825 349.7167 349.7667 352.05 357.6667 362.275 365.6 368.5917 370.1583 367.075 364.7417 365.9917 366.875 367.175 366.85 365.8 366.125 367.5333 367.85 366.5833 365.0583 364.225 363.1 361.9583
501.1158 505.2839 512.4391 519.0634 519.9597 522.02 523.4208 523.3328 518.5272 511.1392 502.0636 493.2486 496.0742 503.6094 511.6592 521.0492 519.9891 509.0192 499.5358 493.0664 493.3775 492.8358 493.7886 491.6469 485.0542 472.5711 464.4642 472.0425 479.725 481.2606 485.5983 493.8708 498.1289 499.2267 497.5092 491.9572 483.8183 476.1767 472.8303 472.3417 473.2253 474.313 474.6 474.2244 471.49 468.6866 463.9944 459.317 460.0642 463.3669 464.2267 465.3108 468.4992 472.7586 477.5383 479.7528 478.9005 481.2425 482.7414 477.6106 469.86 463.9691 460.2083 457.7233 453.8064 448.8014 444.6958 442.0555 440.0714 437.5108 433.5794 432.2078 434.6358 434.3569 434.2853 434.2467 434.4664 434.5261 431.7617 431.55 435.2458 437.0325 438.4914 440.6392 440.1033 436.1078 432.5028 429.5083 427.6222 428.7417 428.1008 428.9933 432.0153 432.99 432.6092 431.5753 430.5992 430.0272 429.6733 429.625 429.6781 429.9781 430.3225 430.928 431.4844 432.4125 433.1197 433.195 433.4625 434.2119 434.9639 436.1108 438.1314 438.9803 437.39 435.8553 435.1561 434.8642 434.7708 434.9483 434.6025 434.5108 433.6603 432.3508 433.208 435.9114 437.4125 438.1636 437.4628 435.3533 432.9716 431.1514 432.8358 435.58 436.0236 436.0517 436.1325 436.3286 435.2142 432.8705 431.0408 431.9008 437.04 439.095 439.355 439.3719 440.3419 441.8317 440.9214 441.2033 439.3775 437.9558 437.4008 437.0758 437.1245 437.9969 439.5183 440.7356 442.4286 439.2717 438.4911 438.2664 436.6158 432.4458 436.2419 438.835 438.635 439.6364 439.9733 439.8283 439.2144 437.9958 436.03 434.8725 433.9717 433.9875 434.9936 436.0042 436.8578 436.66 437.5017 436.3739 434.5697 433.4775 431.4478 430.0308 428.9517 426.8489 424.7361 424.2808 424.7381 428.6567 431.4058 435.2536 434.528 430.0609 425.8172 424.4922 425.8683 422.1278 415.0753 407.6358 403.8103 401.2644 397.965 388.1906 383.3953 381.2608 381.1903 381.5617 381.7509 381.8956 383.8111 392.7992 394.2608 394.4819 396.4858 397.2967 398.7389 398.4242 399.7428 397.748 393.1533 389.4503 388.4569 390.4 392.0569 392.2003 391.8983 391.8686 391.8644 391.8058 391.8361 392.4642 392.7333 391.8317 390.0972 389.0792 388.4333 387.5625 386.9258 386.0836 385.1572 385.1792 384.5872 383.2814 383.0075 383.1947 382.7364 381.9392 381.403 381.6403 382.9975 384.3339 385.6775 386.6658 386.1389 384.8217 383.0125 380.5894 381.0264 381.0375 379.6236 379.2042 379.085 378.8297 378.7917 378.2575 377.1636 376.8256 376.5842 375.4358 373.6472 370.3225 371.3367 372.5994 373.3583 374.6672 375.7378 376.6508 377.4042 377.782 377.6083 376.3667 375.475 374.75 374.4695 374.0194 372.975 370.9861 369.2111 368.0917 367.1111 366.2694 365.2083 364.0639 363.05 362.0667 361.1667 360.1611 358.9333 356.9833 355.2805 355.6083 356.3806 358.3 356.9666 355.8694 356.5861 356.925 355.5 355.4639 354.9167 352.6889 350.8111 350.3 349.9694 347.75 343.8417 340.8222 344 347.7667 349.8111 351.0889 353.3833 356.2056 355.1944 353.2083 351.1111 348.8028 346.275 343.8028 342.1278 340.6667 338.8306 335.9944 333.825 332.5444 331.0889 328.7417 326.1306 323.8306 318.9 316.275 315.9111 311.2167 314.4389 320.0278 317.9833 317.05 321.0389 323.5333 326.0139 327.8278 329.5417 331.1444 331.4055 331.2833 331.4528 331.8583 332.7333 333.9695 335.2917 336.875 338.9445 341.3833 342.275 343.25 342.5528 343.35 344.7028 345.6583 346.1083 348.2667 349.3139 353.2917 359.1306 362.0305 364.85 368.1694 369.3778 367.125 364.7611 363.4611 363.8583 364.2139 363.4667 363.4083 364.5167 365.8195 365.9 364.7722 363.4722 362.3833 361.1833 360.1528
