ncols 351
nrows 32
xllcorner 496132.38261
yllcorner 4655195.65276
cellsize 20
NODATA_value -9999
29.6675 29.23 28.45083 28.675 30.81167 31.90833 32.02 32.0775 32.05 31.91 31.74917 31.69917 31.655 31.6025 31.5425 31.48 31.4175 31.49333 31.4975 31.53917 31.58333 31.55 31.4875 31.29333 30.7475 29.15583 31.1225 31.325 31.715 32.45333 34.09 39.435 43.78667 47.6125 51.48 53.995 55.245 44.63667 47.66583 56.74 60.6975 63.69584 64.005 56.8975 51.56167 50.8825 51.1575 50.79083 53.64 58.54333 63.14333 64.3175 62.30416 59.6775 63.3775 65.89417 68.89 73.5675 77.06167 77.63167 75.535 73.87167 68.05334 63.0225 65.1125 69.89667 73.9975 78.80667 84.1 86.875 86.725 84.63834 79.395 73.67667 68.58167 64.5175 62.395 61.68 64.3375 69.29916 74.19167 76.7125 78.74167 82.6875 88.9425 93.05583 96.97917 99.98 101.7558 99.3275 93.7375 88.435 81.465 76.4075 75.65833 74.86417 74.985 77.20167 80.10416 81.705 80.76 78.5725 73.3575 68.27167 64.0075 60.1175 60.9525 63.13667 63.7025 64.57667 67.7925 69.3825 70.72667 73.20333 76.2675 78.465 79.29917 77.415 76.07667 75.78166 77.185 79.83833 81.48 82.5625 83.79916 84.80583 85.67 86.23416 87.18083 88.5275 90.17417 92.49917 95.19 98.57667 103.2642 107.0775 108.3117 107.7558 107.34 108.9992 111.4367 114.12 116.7283 117.8717 117.1575 115.2517 113.5275 111.4175 109.0783 106.2992 103.3225 100.3292 95.85083 94.165 94.20834 94.9375 96.17 98.41917 100.6175 103.8975 107.7442 112.2817 117.0725 123.4508 128.92 130.12 126.3575 120.0667 115.695 111.3608 107.795 104.1575 100.1658 95.62083 93.9 91.60833 87.84084 84.73 84.16917 84.68083 86.3925 87.40833 84.61 75.8025 66.77417 59.3875 51.255 43.485 37.45333 38.685 42.36667 48.36917 56.425 65.2975 71.28416 72.7025 70.6125 66.815 63.0325 59.49583 56.09167 52.29 49.80917 54.19167 59.7775 60.36333 59.9025 55.9025 51.14417 47.59833 44.255 41.58667 39.42833 37.7475 36.14167 34.66167 32.5275 31.76833 30.8325 30.0175 29.14417 28.27833 27.47 26.77833 26.10833 25.4375 24.8375 24.12917 23.555 23.00167 22.25333 21.865 21.4725 20.68083 20.1 20.06917 20.04167 19.915 19.8425 19.6325 19.4925 19.48167 19.47667 19.4425 19.30417 19.1425 19.0725 19.3025 19.56167 19.45 19.2175 19.06083 19.03 18.9825 18.94333 19 18.99 19.1025 19.1575 18.07083 16.585 16.665 16.7575 16.83083 16.765 16.64917 16.58917 16.4975 16.39333 16.29583 16.6275 17.4675 16.93667 16.77 16.92833 17.1125 17.45 17.0875 17.0275 17.0875 17.1475 17.20083 17.1725 17.12333 17.21667 17.27 17.31083 17.34417 16.6025 15.82333 15.7675 15.71 15.7275 15.79917 15.8725 17.575 17.815 17.6925 17.5575 17.39083 17.1975 17.0625 17.09417 17.165 17.23167 17.305 17.3825 17.435 17.40333 17.355 17.32333 17.30333 17.295 17.295 17.27333 17.15 16.9725 16.80083 16.6625 16.545 16.50083 16.8825 18.05167 19.91 20.7025 19.83667 17.23333 16.36 14.93667 14.97083 14.2025 14.23417 14.24 14.235 14.23 14.22917 14.22 14.19 14.20667 14.225 14.24333 14.26083 14.2725 14.28833 14.28917 14.2475 14.21 14.17083 14.155 14.18917 14.2025
28.87417 28.19555 28.15806 30.36167 32.04722 32.13861 32.23833 32.2575 32.15694 32.03333 31.90417 31.81389 31.73917 31.67694 31.61167 31.54083 31.48389 31.70278 31.56833 31.56028 31.59528 31.555 31.48833 31.38778 30.84 29.21167 30.68444 31.5675 32.00194 32.53611 33.15334 37.0275 41.8575 44.47916 49.01472 52.3125 54.26333 43.92111 52.70333 59.55083 62.19139 64.79945 65.83667 58.99889 54.70306 54.865 55.28806 53.71889 54.5925 59.54528 66.27666 70.55333 66.82027 62.92472 64.95167 68.15083 71.00139 74.02334 76.64389 78.34167 76.66833 73.58945 68.16111 65.77833 71.07611 77.58944 83.20917 87.72889 92.76972 92.2325 89.46056 86.40334 81.92 75.54778 70.38084 65.96584 63.87167 62.86833 64.325 69.78861 73.42333 75.77917 77.91972 81.52306 88.20667 93.06667 98.01972 101.1508 102.7278 99.95361 94.81834 90.36916 82.90556 77.2825 76.91778 75.83028 75.95583 79.05361 80.96528 82.31084 81.90222 80.16695 75.52 71.31333 67.39333 63.19333 60.08639 60.26417 61.5625 63.77611 66.64528 67.51334 68.41473 70.11 71.63583 72.19778 71.84028 70.27333 71.35917 74.66805 76.75333 78.89833 79.56055 80.20333 81.23778 82.08862 82.98167 83.14694 84.61055 86.38834 87.7425 89.37806 92.9425 97.04305 100.8417 103.9233 104.7161 104.5461 106.2275 107.945 110.2544 112.5883 114.875 115.6267 115.1267 114.3628 113.1156 111.6817 109.8006 106.7914 103.9167 101.4642 98.23917 95.5 94.91778 96.09583 96.58417 98.05028 100.4125 103.2542 106.8889 112.4208 117.3725 124.0686 129.5247 131.9842 130.2783 122.4311 116.5058 111.5292 107.6242 104.2567 100.0906 94.605 92.78 90.63 87.01083 84.4075 83.00972 82.54056 84.52083 84.96917 83.17639 76.87583 68.19611 60.81694 53.49417 46.66583 40.3775 39.29583 42.97945 47.90306 55.32 63.28 69.41194 71.34334 70.50249 67.49528 63.99916 60.7725 57.69639 54.50083 51.08861 54.87056 59.425 59.54056 57.48306 53.27333 49.43583 45.78639 42.06334 40.3875 38.60722 36.71917 35.52417 34.53944 32.54 31.57111 31.12222 30.21417 29.27139 28.41694 27.65917 26.93195 26.2325 25.53583 24.96417 24.43528 23.625 22.81333 21.89278 21.51333 21.45333 21.19806 20.31167 20.26694 20.15361 19.91333 19.66472 19.47333 19.48583 19.48028 19.43639 19.41417 19.3725 19.38472 19.3375 19.29861 19.48722 19.3925 19.24083 19.08333 19.05667 19.01056 18.965 19.00333 19.00972 19.025 18.9625 18.88889 18.06417 16.4825 16.58 16.62778 16.59667 16.52111 16.45667 16.36667 16.25306 16.145 16.06583 18.26306 17.40195 17.49583 17.69111 17.80417 17.6875 17.04861 17.01833 17.07667 17.14194 17.19695 17.245 17.24028 17.28695 17.32083 17.33667 17.35028 16.60167 15.78917 15.61583 15.57667 15.52917 15.57639 15.68 17.15861 17.86944 17.67333 17.47722 17.29111 17.11417 17.01639 17.06167 17.14083 17.21305 17.29167 17.36667 17.43889 17.40472 17.35917 17.33028 17.31667 17.30833 17.29445 17.21305 17.00833 16.83833 16.66667 16.5225 16.40333 16.43361 16.45917 16.85833 18.275 19.53667 19.06222 17.26 16.64833 17.77694 16.80305 14.4125 14.21083 14.21333 14.20833 14.20333 14.20333 14.18083 14.125 14.14 14.15833 14.17667 14.2 14.21833 14.25056 14.28806 14.26 14.225 14.17556 14.17 14.22 14.25917
28.2425 28.86583 32.00834 32.3875 32.35139 32.37861 32.39833 32.31805 32.2025 32.18 32.00333 31.81861 31.77917 31.75639 31.69889 31.64917 31.62028 31.75333 31.69083 31.595 31.61472 31.555 31.49389 31.28 30.405 29.66055 30.01778 31.6075 32.16667 32.80056 33.35333 35.29361 39.64305 43.02583 45.97806 49.45389 48.74083 44.09167 55.71806 60.90833 63.68333 65.79333 67.72833 60.72861 57.03972 57.92167 59.13417 58.69944 57.4275 60.39028 67.99722 75.09666 71.61 66.13333 65.27583 68.12527 71.01583 73.755 77.01639 79.46472 77.76584 74.75584 69.2975 67.6925 73.24861 81.87222 86.63834 93.50444 98.42 97.67834 92.42694 88.02028 83.63167 77.62083 72.08583 67.94417 64.84834 63.93611 64.44083 68.07056 70.35611 73.86083 77.05583 80.52917 87.865 93.11472 98.82944 102.025 102.4678 100.3964 95.76666 91.45084 84.50167 78.96333 78.33334 77.46278 76.22334 80.64222 83.07222 84.05917 83.62112 81.43972 76.78917 72.63583 70.15694 66.66084 64.07861 63.15972 63.205 63.74889 65.80722 66.33833 67.10278 67.75362 69.26 69.51222 69.47417 71.15083 75.49 78.19527 79.70333 80.28778 80.35028 80.53167 81.23805 82.28638 83.34834 83.85333 83.72417 84.49583 85.99805 87.69167 90.3425 94.64889 98.26833 100.4292 100.7983 101.8592 104.04 106.0542 108.3392 110.6175 112.4458 113.6944 113.9692 113.4078 112.1881 110.9775 109.5239 106.0258 103.7575 101.9114 99.86583 97.1975 96.03333 96.09417 96.825 98.2225 100.4281 102.3508 106.0889 112.3125 117.7808 124.2894 129.3603 132.5433 131.5389 124.4928 117.0967 111.8103 107.5089 104.3892 99.97778 94.45361 91.99 90.05695 86.23222 83.6975 81.52944 80.73444 82.01583 82.06389 81.19055 77.44417 69.65334 62.35083 55.96917 49.94722 44.6575 41.50084 44.30527 48.46695 54.275 59.82333 65.03278 68.0925 69.21472 67.67611 64.4825 61.37222 58.49556 55.92667 52.63833 55.24722 57.62 57.22611 54.81167 51.2175 47.72195 43.58417 41.07583 39.79945 37.97417 36.62917 35.50639 34.50417 32.59834 32.14944 31.45167 30.45083 29.55556 28.61806 27.85333 27.16361 26.51917 25.7725 25.15222 24.75972 23.83583 22.98278 22.74833 22.40167 21.92722 21.26111 20.6475 20.40472 20.185 19.95167 19.63083 19.46222 19.485 19.47028 19.24806 19.19917 19.13222 19.15639 19.19083 19.29472 19.35194 19.2425 19.13722 19.09889 19.08 19.0625 19.03472 19.00167 18.96305 18.91806 18.82083 18.7 18.57417 17.585 16.4375 16.42667 16.42083 16.40528 16.32445 16.2275 16.11806 16.02278 15.98083 18.26528 18.24361 18.17833 18.10889 18.24 17.98583 17.03722 16.94972 17.02333 17.09833 17.16806 17.23917 17.28806 17.305 17.31417 17.32195 17.33333 16.43083 15.48944 15.46 15.4275 15.37 15.31917 15.61 16.82722 17.70611 17.545 17.40333 17.255 17.08167 17.02083 17.06972 17.13 17.2 17.27778 17.34333 17.39778 17.39167 17.36083 17.33278 17.31917 17.29417 17.23861 17.12333 16.86833 16.69667 16.53028 16.385 16.37861 16.54722 16.545 16.64694 16.79472 16.95667 16.76583 16.60555 16.55417 16.53472 16.75389 17.955 15.85056 14.86639 14.4 14.19056 14.17639 14.11167 14.065 14.07333 14.09167 14.11 14.13611 14.17417 14.23306 14.26694 14.17917 14.11083 14.07111 14.16583 14.24667 14.25417
30.6375 32.41 32.6625 32.5975 32.5325 32.43 32.4375 32.42417 32.31083 32.3225 32.20083 31.95333 31.8775 31.88083 31.85667 31.83 31.81167 31.79 31.6925 31.62 31.62917 31.55 31.40417 30.61167 29.7925 29.74833 30.5975 31.635 32.23917 32.97167 33.775 34.76167 37.695 41.5425 44.01917 47.86417 45.5625 47.9275 58.785 62.225 65.12334 66.79584 70.055 64.78083 59.41167 61.075 63.7675 63.6625 60.905 62.01 69.15667 77.4225 76.49667 70.09416 67.605 69.03667 71.40334 73.8225 77.90833 80.16417 78.9175 76.125 71.46917 69.1025 73.94833 81.97166 86.8675 94.32584 100.3108 100.7875 95.84334 89.51583 84.935 79.85833 73.55167 69.77 67.0425 65.35167 64.83 67.40417 70.78166 74.3675 77.10333 80.17917 87.0975 93.19917 99.09334 102.3025 102.52 100.7717 96.6 92.07 86.21834 80.36501 79.12833 78.35751 77.8325 82.97833 86.8275 86.535 85.58417 81.85416 78.2075 74.28584 71.93583 69.565 67.34417 67.39333 67.80251 67.06167 66.22083 66.31 68.16583 69.11 70.35 70.4525 72.73 75.905 78.58833 80.425 80.89 81.2425 81.44333 81.6775 82.2325 83.02917 84.0875 84.99167 85.61667 85.455 85.3725 86.45 88.4125 91.62917 94.72833 96.7475 97.97083 99.7825 101.975 104.0342 106.2692 108.445 110.4333 111.6842 112.43 112.6008 111.7225 110.82 109.3425 105.6825 103.5225 101.9 100.2467 98.145 97.02666 97.04917 97.43 98.665 100.3725 102.4325 105.9425 112.0775 117.8225 123.7675 128.4217 131.265 131.6417 125.5333 117.75 112.0125 107.2717 104.075 99.50333 94.8625 91.7775 89.44666 85.9425 82.9525 80.05 78.62833 79.425 79.70084 79.86417 78.56 72.74333 64.46 58.41 52.91417 48.42667 44.3425 44.81667 48.85833 53.2075 57.31083 60.71667 64.365 65.85083 65.68083 63.2375 60.6775 58.305 55.87 53.71417 55.1025 55.8575 55.2125 52.64417 49.4 46.03083 42.32833 40.715 39.3725 38.20417 36.9875 35.75417 34.50083 32.76 32.34417 30.99167 30.36 29.545 28.66083 28.01 27.68833 27.25583 26.17 25.35083 24.96583 24.135 23.3625 23.19083 22.735 21.9625 21.25917 20.755 20.50917 20.28333 20.0625 19.77917 19.49833 19.485 19.46333 19.12 18.9525 18.83917 18.84833 18.8875 18.99333 19.0575 19.0625 19.08 19.13667 19.13 19.065 18.96083 18.9 18.86417 18.8175 18.7075 18.57667 18.4725 18.3675 17.3125 17.215 17.1925 17.09917 16.1975 16.095 16.01333 15.95333 15.9425 17.4275 18.43667 18.27 18.11583 18.1025 17.9975 17.02583 16.87917 16.9275 17.00083 17.075 17.16 17.24083 17.24167 17.255 17.26417 17.27583 16.2575 15.25167 15.30083 15.285 15.23583 16.28 16.89 17.50833 17.57167 17.445 17.31 17.22417 17.06 17.02917 17.08667 17.14 17.18917 17.25917 17.2825 17.3225 17.345 17.3425 17.34 17.3225 17.26 17.20167 17.03083 16.75 16.51917 16.38083 16.34 16.46583 16.75 16.6875 16.71667 16.82917 16.8925 16.84333 16.75167 16.7 16.665 16.69333 16.77 16.9425 17.57333 16.6925 15.93667 14.32 14.0425 13.99833 14.00667 14.025 14.05583 14.10417 14.17 14.22333 14.2525 14.155 14.01583 14.00083 14.165 14.25417 14.19
32.41583 32.70833 32.73333 32.64917 32.54972 32.49528 32.5475 32.63028 32.49417 32.44833 32.39417 32.20194 32.005 32.02611 32.095 32.065 32.03778 32.01 31.84833 31.63806 31.63389 31.51583 30.68944 30.17667 30.6425 30.78472 31.0675 31.75417 32.31306 32.865 33.63417 34.78528 36.50667 39.88417 42.83945 45.32167 43.87583 51.005 58.8075 62.9875 65.70084 67.44 70.8275 69.76361 64.60306 65.6575 68.19666 66.34639 63.16583 63.95472 70.69667 78.04833 79.95695 73.47444 70.68833 70.37722 71.57973 73.99834 78.00583 80.25667 79.78584 77.36083 73.82139 70.79166 74.61611 81.99055 87.23833 94.63611 100.5475 102.3383 98.5125 91.99611 86.19667 81.36111 75.39806 71.65833 68.41167 66.05334 64.74416 67.41833 71.385 73.76583 75.72166 78.91666 86.03833 92.73778 98.74472 102.3217 104.2306 102.415 98.07083 92.80028 87.19055 81.5 79.6275 78.95084 80.07917 86.62695 91.18555 89.7775 86.50556 82.97972 79.655 75.83167 73.65083 71.765 70.34861 70.19222 70.22916 69.94667 69.57611 70.46083 73.28445 75.64833 77.31917 78.25389 79.34972 80.12583 81.08945 81.52695 82.0475 82.25278 82.46834 82.85667 83.40334 83.98583 84.86417 86.03278 87.155 87.30167 86.61222 86.30417 87.51167 89.53028 92.14111 94.5825 96.74472 98.52389 100.2517 102.2683 104.5825 106.8475 108.8819 110.3947 111.3825 112.3481 111.8653 111.0792 109.7611 106.1558 103.7792 102.1317 100.5733 99.35083 98.2575 98.08056 97.93083 99.32278 100.4822 102.2683 106.1739 111.8592 117.1225 122.1136 126.3442 129.4158 131.075 126.4586 118.3825 112.0661 106.7706 103.6108 99.63167 95.62277 91.69 88.65861 85.91111 82.64084 79.37334 77.17084 77.38 77.84334 78.22806 76.99667 74.95139 67.09417 61.03 55.96445 51.61111 47.65917 45.43917 49.365 52.3775 55.67889 58.24639 60.59583 62.17583 62.14528 60.80917 59.00361 57.28389 55.43417 54.07055 54.74944 54.7325 52.98083 50.25028 47.17417 43.25639 41.54611 40.25 39.10389 38.03139 36.94167 35.8325 34.54472 32.91333 32.11389 31.15805 30.24417 29.39278 28.62583 28.09167 27.98111 27.78 26.73 25.8925 25.22889 24.29667 23.76444 23.43889 22.86833 22.00056 21.32389 20.83333 20.59972 20.40806 20.21917 20.01361 19.80389 19.7225 19.49528 19.035 18.7725 18.65722 18.6625 18.74667 18.88778 18.99778 19.0825 19.16028 19.21055 19.17583 19.05778 18.93556 18.81917 18.76528 18.70861 18.58167 18.50611 18.48333 18.4625 18.22083 18.22139 18.08083 17.9125 17.27472 15.9875 15.91417 15.88389 15.89583 16.2675 18.545 18.16167 18.03667 18.16361 18.13417 17.16306 16.835 16.84833 16.91028 17.00833 17.10167 17.195 17.17 17.18333 17.19667 17.21 16.69667 15.30278 15.15694 16.0425 16.97667 17.46028 17.52833 17.54778 17.52889 17.3575 17.2125 17.13083 17.05083 17.04167 17.09667 17.15833 17.20194 17.23639 17.25917 17.28472 17.33306 17.36167 17.36667 17.31472 17.27167 17.26056 17.17028 16.81917 16.54028 16.44111 16.58667 16.74611 16.99583 16.81333 16.73778 16.80528 16.86583 16.90833 16.86861 16.80417 16.74806 16.77444 16.79333 16.74694 16.84278 17.21417 17.19667 18.08583 16.12333 14.06778 13.94 13.97083 14.04056 14.11389 14.16583 14.20667 14.24083 14.17667 14.02361 14.04722 14.15167 14.20333 14.09667
32.45583 32.79694 32.78 32.67333 32.57361 32.54 32.74334 33.00361 32.83472 32.60333 32.52611 32.31445 32.09167 32.10917 32.21944 32.175 32.10833 32.06667 31.84667 31.67528 31.63305 31.1975 29.505 30.79722 31.17583 31.50722 31.9825 32.46833 32.89722 33.485 34.1725 35.23222 36.53056 38.61167 42.12333 43.76889 43.62333 52.29861 58.04972 62.9375 65.96 67.90667 71.27417 71.58472 69.30611 70.08167 70.76833 67.81028 65.3025 67.60583 72.98277 79.12167 81.7425 76.82278 73.52 72.95889 72.83278 73.87667 77.46362 80.36972 80.85167 78.95861 75.07445 72.3675 75.53973 81.87222 87.785 94.75889 100.6211 103.7517 100.6558 94.46028 87.85916 82.58028 77.25361 72.63833 69.01334 66.84834 65.37917 67.06834 70.44861 71.65417 73.71806 79.73416 86.385 92.54139 97.99055 102.0042 104.7094 104.7175 99.97 93.69889 88.26889 82.24167 79.69222 79.25472 83.27084 90.16055 94.48194 92.1225 88.09361 84.82777 81.67667 77.61166 75.33528 73.4825 72.49083 72.72611 72.56917 71.45944 71.37833 74.05167 77.88194 80.83944 82.43667 83.37695 83.63167 83.49834 83.37195 83.20889 83.34666 83.51222 83.585 83.76083 84.24223 84.85278 85.815 87.04945 88.2775 88.7875 88.19889 87.57944 87.77917 88.6011 90.96667 93.7925 95.65028 96.97278 98.67667 100.8653 103.4544 105.75 107.5594 109.3883 110.8108 112.3167 113.2172 112.8175 111.6539 107.5975 104.3267 102.5447 101.0406 100.2217 98.98889 98.5275 98.27167 99.37556 100.2978 101.4642 105.9431 111.3303 116.1092 120.4978 123.8222 127.0092 129.2044 126.4406 118.7817 112.2353 106.3342 103.4742 99.71001 95.71528 91.7075 88.19833 85.54584 82.49333 79.12833 76.22611 75.49333 76.13972 76.95306 76.72583 75.25972 69.44806 63.61666 58.75055 54.51139 50.8025 47.15334 50.09472 52.62417 54.98 56.36083 57.78333 59.05584 59.18666 58.4675 57.21222 55.95694 54.48333 53.17083 53.28139 52.50417 50.3825 47.47722 43.97166 41.84667 40.87139 39.7625 38.75917 37.7475 36.67167 35.60278 34.54833 33.40833 32.27666 31.10972 30.27667 29.36167 28.58945 28 27.8175 27.65472 27.2625 26.65917 25.96333 25.18667 23.97944 23.345 22.6775 22.03083 21.42417 20.89417 20.635 20.455 20.25583 20.04556 19.92833 19.63667 19.14639 18.89639 18.76833 18.675 18.60444 18.73917 18.92667 19.09667 19.18833 19.25361 19.29056 19.165 19.045 18.92167 18.79333 18.68028 18.60889 18.53917 18.525 18.51139 18.4925 18.41805 18.26806 18.11583 17.965 17.81889 16.95083 15.90222 15.76083 15.84667 16.00056 18.49333 18.22167 18.17361 18.33667 18.15583 17.64583 17.545 17.87 17.0325 16.95333 17.0425 17.13167 17.13361 17.10583 17.11833 17.13167 17.14917 15.76806 17.22056 17.33667 17.45555 17.52389 17.52917 17.50806 17.49167 17.25417 17.02778 17.03083 17.0325 17.05778 17.11 17.17167 17.21667 17.24667 17.28667 17.31972 17.35111 17.38667 17.36806 17.33528 17.3275 17.32528 17.28806 17.02917 16.74806 16.60861 16.80833 17.08028 17.14889 16.91167 16.74944 16.81833 16.87667 17.02667 16.96917 16.89 16.79 16.77306 16.71417 16.65528 16.72083 16.935 16.92694 16.91555 17.2775 18.395 16.50945 14.73917 14.19944 14.10611 14.15167 14.18611 14.23028 14.1925 14.12833 14.17278 14.22083 14.23556 14.07194
32.3 32.77333 32.78833 32.695 32.59333 32.66 32.9525 33.22417 33.07167 32.6875 32.62 32.44167 32.205 32.16 32.24667 32.2275 32.1375 32.17917 32.2175 32.11417 31.81417 31.1625 30.71917 31.14167 31.39 31.70917 32.06 32.5425 33.2 33.90916 34.65 35.56167 36.66084 38.0825 40.8375 43.22917 45.205 52.68917 57.74916 62.61 66.4125 69.10083 72.0725 73.94417 72.99167 72.6675 71.80583 69.00667 68.52 72.16666 76.78667 82.72 84.4325 80.48167 76.7175 75.3075 75.08583 75.5275 78.08167 82.5825 83.24 80.30167 76.76583 73.96 76.32083 82.31 88.065 94.67833 100.5633 104.6475 102.6733 96.66583 89.8375 84.11333 79.98417 75.025 70.20333 68.155 66.925 66.66583 70.29916 71.4025 73.76 79.85667 86.29 91.88583 96.24834 100.8 104.5308 105.6517 102.3 95.5275 89.83583 82.9225 80.35083 83.63583 87.055 93.61166 98.25 95.3675 90.53083 86.54417 83.705 79.545 76.82083 75.0275 74.45917 75.0325 74.6575 72.77834 73.02583 76.6175 81.33833 84.2975 85.895 86.63417 86.41583 85.765 85.30583 84.82417 84.625 84.59666 84.55333 84.6975 85.175 86.03833 87.1525 88.20417 89.38499 90.29 90.00333 88.74333 89.295 89.9675 90.26 92.9125 94.95667 95.97667 97.72 99.81333 102.2892 104.3775 106.32 108.3125 110.165 112.055 114.1825 114.95 114.4883 111.1533 106.3 103.6383 102.5267 101.555 99.90417 98.99833 98.6775 98.49834 100.5625 101.5275 104.88 110.2367 114.6925 118.6942 121.7192 124.665 126.9733 125.7967 119.2725 112.3483 106.5242 103.085 99.61667 95.4225 91.6925 88.28333 85.19917 82.295 79.06167 75.67083 74.3475 74.445 75.57333 75.6275 74.50667 70.635 65.9175 61.61666 57.495 53.915 50.335 50.86917 53.1775 54.79 55.62833 56.03 56.76917 56.78833 56.32 55.335 54.49667 53.4275 52.09583 51.56166 50.5475 48.77083 45.11917 42.58 41.36167 40.3425 39.305 38.33833 37.4125 36.4225 35.41583 34.355 33.4675 32.36333 30.81083 30.2 29.50583 28.70583 27.8825 27.60083 27.46417 26.9 26.33167 25.8775 25.2225 24.09667 23.3925 22.7625 22.12417 21.54417 21.0625 20.76833 20.57083 20.3775 20.16333 19.66167 19.3075 18.92417 18.88833 18.795 18.6975 18.6075 18.6925 18.88167 19.06917 19.135 19.21333 19.27583 19.1575 19.02667 18.89333 18.77 18.67167 18.5925 18.57 18.55167 18.53667 18.515 18.46 18.31583 18.1625 18.03833 17.92417 17.8425 17.12333 16.21083 15.6275 15.93167 17.85333 18.24 18.10167 18.03667 17.9575 17.90333 17.895 17.905 17.08167 16.89583 16.9825 17.07333 17.11917 17.0375 17.03917 17.06167 17.2225 17.4 17.46417 17.5 17.515 17.51167 17.485 17.4625 17.4425 17.3075 17.10167 17.07917 17.0975 17.09083 17.12333 17.1875 17.23083 17.265 17.3025 17.34 17.37917 17.4025 17.3925 17.37917 17.37 17.35667 17.33417 17.195 16.95583 16.77167 16.92 17.17667 17.15083 16.985 16.81083 16.83167 16.8875 16.935 16.98333 16.8225 16.74083 16.68667 16.625 16.56333 16.6175 16.7625 16.7325 16.6925 16.5425 16.48417 16.90083 17.185 16.47333 15.68417 14.3075 14.18083 14.21 14.22 14.22583 14.2575 14.2725 14.275 14.1175
32.115 32.69139 32.76333 32.67916 32.59917 32.64806 32.85333 32.97389 32.75583 32.4425 32.54583 32.61333 32.3975 32.32472 32.31834 32.28833 32.20833 32.4875 32.5425 32.59195 32.14528 30.53583 30.58611 31.28333 31.57917 31.8625 32.14305 32.62917 33.37639 34.13889 34.91084 35.79111 36.89944 38.31583 40.09333 41.32556 46.495 53.06166 57.425 62.19917 66.36083 69.83527 73.1375 75.30361 75.56473 74.92416 74.01278 70.77944 70.60416 73.72472 79.11417 84.6475 86.35445 83.25723 78.8525 76.52556 77.24445 78.79083 82.09556 86.26055 85.99917 81.96278 78.585 76.06917 77.83389 83.49361 88.49083 94.62278 99.81389 104.2392 105.3297 100.2436 92.3325 86.16167 82.76055 78.67416 72.63639 69.07 67.69583 66.23 69.91361 71.555 73.3325 78.0625 84.82833 90.57333 94.40194 98.58334 103.1189 106.1331 104.6967 98.41444 92.29306 86.04916 81.6775 86.06139 90.45583 96.78638 100.8819 98.2375 93.57639 89.8175 85.74167 81.56306 78.32999 76.6975 76.11917 76.84306 76.4625 74.24861 74.99834 79.44583 84.34888 87.71667 89.40334 89.29417 88.32222 86.84417 86.14528 86.25333 86.0825 86.01028 86.00361 86.20084 86.74528 87.70722 88.78167 89.57694 91.65361 92.68417 91.65222 89.90028 90.6025 92.45194 91.41722 91.72417 93.69222 95.34306 96.92167 99.17389 101.5781 103.6175 105.4417 107.3644 109.3192 111.7169 114.3686 115.8908 116.5867 114.7355 109.7692 105.2528 104.0628 102.9258 101.3236 99.65388 99.27917 98.91833 100.3883 101.3575 103.6433 108.8958 113.1758 116.6322 119.8258 122.875 125.6408 126.0972 120.0342 112.7253 106.8683 102.3625 98.73028 94.92 91.72334 88.34333 84.765 81.72166 78.26305 74.78361 73.53916 73.04889 72.91167 73.0125 72.57166 70.23861 67.21 63.73695 59.98278 56.61917 53.77917 52.295 53.70167 54.94584 55.28333 55.16417 55.00889 54.86778 54.28917 53.1925 52.84333 52.22167 51.08056 50.21972 49.04917 47.06611 44.6125 42.76333 41.35583 40.12611 39.18083 38.04945 37.05528 36.04833 35.04278 34.19639 33.38083 32.22778 31.03278 30.45667 29.75417 28.86667 27.90667 27.20639 26.97361 26.4125 25.98472 25.57083 25.1125 23.89305 23.22472 22.74333 22.26611 21.74055 21.435 21.14333 20.87833 20.76167 20.77417 19.76306 19.37833 19.12694 18.92333 18.82583 18.72 18.61333 18.59583 18.77556 18.83889 18.79833 18.86472 19.00833 19.1 18.96667 18.85667 18.7925 18.72833 18.6525 18.605 18.57972 18.55639 18.54167 18.50194 18.36083 18.24667 18.13389 18.01833 17.92583 18.04445 18.20111 18.025 18.04194 18.15361 18.11667 17.93111 17.88528 17.85917 17.81639 17.795 17.80667 17.62667 16.86333 16.94333 17.01083 17.07694 16.99417 17.02389 17.23472 17.50417 17.60833 17.57583 17.53833 17.49806 17.47861 17.445 17.41833 17.39333 17.36083 17.21722 17.17333 17.15 17.13639 17.14361 17.20333 17.245 17.28333 17.3225 17.35472 17.38917 17.38917 17.39055 17.38 17.36667 17.35333 17.33722 17.315 17.15667 16.95 17.03583 17.12028 17.025 16.92917 16.83194 16.81028 16.84417 16.84611 16.84056 16.75083 16.65972 16.59472 16.53583 16.47694 16.50167 16.5775 16.53944 16.4875 16.4325 16.4025 16.36722 16.31 16.6 16.59556 16.89667 15.74361 14.24528 14.22667 14.22611 14.23667 14.24917 14.29083 14.17
32.29333 32.64944 32.70694 32.6075 32.49972 32.60528 33.005 33.03806 32.57944 32.47917 33.08445 32.69556 32.66083 32.58722 32.555 32.5225 32.44139 33.12472 32.83417 32.79083 32.35806 30.20667 30.55111 31.36778 31.73333 32.05167 32.34278 32.75917 33.41583 34.12194 34.865 35.69 36.87861 38.57917 40.16028 41.41195 47.91167 51.98361 55.68166 61.49833 65.81361 69.37417 73.06917 75.28777 75.87945 75.94833 75.43806 72.64778 71.77834 75.37833 80.35889 86.55083 89.30945 84.05861 79.63334 77.73583 79.3 82.25166 86.87695 89.5575 87.89 83.66695 80.80972 78.88834 79.35028 85.04138 88.90916 94.97833 99.90916 104.0275 107.5931 103.165 95.11 88.10222 84.03056 81.05417 76.01528 70.86889 68.73667 67.35722 68.56611 71.26666 73.03111 75.54056 82.36833 88.71973 92.38361 95.835 100.4614 105.5069 106.9208 102.7069 95.76139 89.51833 83.57111 86.98111 92.41 98.95277 103.4797 100.6 96.2925 93.49223 88.495 83.94639 79.86195 78.20167 77.6275 78.46944 78.92667 76.38389 77.20084 81.36083 85.58611 88.72166 91.1375 92.73111 92.93889 90.65833 88.48056 87.86166 87.70667 87.73083 87.81 88.05417 88.48861 89.46444 91.73167 95.21139 96.06611 94.9475 93.04 91.30556 92.3675 94.52944 94.77612 92.35167 92.53972 93.99417 95.87667 99.33278 101.9922 104.1408 105.5311 106.7225 108.6592 111.2111 114.3469 116.9217 118.5894 117.3108 112.545 108.4028 106.475 105.5508 104.6281 101.3475 100.24 100.0228 100.7075 101.5692 103.5378 107.3239 111.5142 114.8267 118.065 121.2158 124.4042 125.4575 120.6833 113.5383 107.5078 102.4367 98.36833 94.33778 91.28833 88.10834 84.13445 81.08167 78.01361 74.6825 73.1925 72.3525 71.81333 71.3125 70.88528 69.29222 67.09084 64.22417 60.56805 57.4975 54.59222 53.0425 53.89917 55.00167 54.91417 54.6125 54.05667 53.62389 53.00167 52.10167 52.07084 51.63083 50.47556 48.69028 47.55 46.13889 44.17083 42.895 41.48584 40.05389 39.01083 37.815 36.55917 35.58417 34.72722 34.04833 33.36916 32.04 31.43972 30.73 29.96056 29.00167 28.02833 27.07306 26.51528 26.12583 25.785 25.45528 25.12167 24.00333 23.38889 22.90333 22.54972 22.18278 21.915 21.55556 21.1625 21.065 20.49944 19.81167 19.53333 19.27028 19.00639 18.8625 18.76444 18.6825 18.6125 18.58278 18.54833 18.49833 18.49139 18.6875 18.95583 18.98667 18.92306 18.86333 18.79667 18.71639 18.64583 18.61833 18.59167 18.56917 18.53833 18.43194 18.31333 18.19333 18.07361 18.03833 18.26139 18.52944 18.57333 18.3825 18.20667 18.03833 17.88389 17.82639 17.78083 17.73528 17.69944 17.6975 17.6525 16.90861 17.11167 17.15639 17.15028 17.16167 17.33278 17.56111 17.62333 17.66194 17.56361 17.50917 17.47139 17.44167 17.415 17.38833 17.35333 17.32667 17.25 17.21194 17.19583 17.18806 17.17917 17.21667 17.25972 17.29667 17.33667 17.37111 17.36639 17.36083 17.33028 17.35945 17.35 17.30861 17.30694 17.29667 17.22528 17.12278 17.06333 16.99694 16.90333 16.81 16.73889 16.745 16.7825 16.80472 16.80111 16.76417 16.67861 16.54028 16.45167 16.38667 16.39 16.39167 16.34472 16.30167 16.2625 16.23167 16.205 16.16583 16.09472 16.13333 16.21583 16.26639 17.04361 15.6425 14.70389 14.29833 14.2225 14.28833 14.19944
31.815 32.40334 32.66666 32.615 32.42583 32.6525 33.03 33.32 32.80917 32.4925 33.37167 33.29583 33.0075 32.8275 32.825 32.76 32.595 33.25083 33.2775 33.37917 32.66333 30.3475 30.8525 31.4275 31.825 32.1975 32.58916 33.0475 33.56 34.14417 34.7625 35.55167 36.76833 38.4825 40.2175 42.4625 47.895 51.4275 54.6275 59.7425 64.3575 68.0125 71.815 74.82584 75.81333 76.5575 76.4225 75.66583 73.915 76.60167 81.28834 87.9225 90.15667 84.44583 80.19 78.8425 81.07083 84.9175 89.6475 91.4625 89.4425 85.33083 82.9 81.43 82.56834 86.26083 89.65 95.58916 100.3275 105.475 109.2267 104.9267 97.4725 90.40166 84.65583 82.3025 78.63667 73.41917 70.665 69.64417 68.49083 71.0325 73.36584 75.64083 80.7175 86.815 90.54667 93.7375 97.87833 103.365 107.09 106.4692 99.9025 93.3275 88.09416 87.23917 93.4 100.1067 105.3642 102.735 98.51416 95.93833 91.9625 86.6825 82.1575 79.44 79.40166 82.505 83.1925 79.38834 77.65583 81.7825 85.4175 88.86833 93.3225 97.40583 98.18 94.6075 90.89333 89.31667 89.23 89.36417 89.54333 89.76 90.40583 92.10083 95.69 99.05417 99.46416 97.695 95.355 93.42416 93.98 95.465 96.0025 95.6125 95.40166 94.66666 95.385 100.1617 103.2742 105.5775 107.0267 107.9658 108.7775 111.0183 114.225 117.5725 120.2408 119.6567 114.7425 111.4117 109.3875 107.8625 106.5708 104.8217 102.64 101.4833 101.4108 102.3575 104.3625 106.7217 110.285 113.815 116.9583 119.995 122.8817 124.4008 121.23 114.3217 108.2533 103.1175 98.85667 94.2525 91.1325 88.0875 84.15166 81.1875 78.71916 76.01917 74.1775 71.80666 70.32166 69.7875 69.12833 67.64417 66.0875 63.985 60.74167 58.21 54.64083 53.81 54.1275 54.65333 54.52167 54.2325 53.53083 52.73917 51.97 51.38 51.41667 51.1225 49.9575 48.15833 46.8075 45.68167 43.5675 42.6775 41.4625 39.89083 38.46 36.92083 35.84167 35.0925 34.3975 33.75083 33.1875 32.79083 31.9225 31.0075 30.24667 29.33 28.3575 27.46417 26.82333 26.37 26.05 25.72667 25.3 24.67333 23.92 23.3025 22.92667 22.6375 22.3 21.8125 21.685 21.585 20.85167 20.01833 19.735 19.53083 19.18833 18.9625 18.97 18.94083 18.7 18.45917 18.32083 18.29 18.40083 18.62833 18.9725 19.0625 19.00167 18.935 18.86833 18.7825 18.6975 18.65833 18.63167 18.59 18.5525 18.48167 18.3725 18.255 18.14167 18.1975 18.445 18.59583 18.535 18.36167 18.19333 18.0225 17.85167 17.75333 17.705 17.65667 17.61083 17.59 17.54833 17.17333 17.2375 17.32667 17.36833 17.4275 17.51167 17.65083 17.615 17.5625 17.50083 17.4675 17.43833 17.40667 17.38 17.35333 17.33167 17.3075 17.27917 17.25417 17.245 17.23583 17.22833 17.235 17.27917 17.31417 17.34 17.34083 17.33833 17.33 17.305 17.31417 17.3225 17.2725 17.1875 17.2275 17.2175 17.115 17 16.88917 16.78333 16.6975 16.66583 16.6775 16.72 16.75833 16.7675 16.785 16.74417 16.65167 16.5125 16.34833 16.31917 16.2325 16.16667 16.11917 16.08 16.0575 16.03167 16.005 15.97 16.01833 16.0275 15.96167 15.93583 16.32 16.5 15.58917 15.25 14.54417 14.2925
32.25333 32.61 32.65 32.64333 32.495 32.59833 33.02167 33.38667 32.68194 32.7225 33.32417 33.49194 33.50833 33.18306 32.93528 33.10583 32.89583 33.52139 33.57084 33.00222 32.26722 30.83 31.24694 31.73167 32 32.11972 32.8425 33.36083 33.86528 34.3775 34.95583 35.56472 36.90806 38.93167 40.23444 45.1325 48.12417 51.07 53.89555 57.92417 62.49583 66.12583 69.53584 72.71389 75.28889 76.89167 78.37778 78.22 76.65166 77.69722 81.67056 88.54833 90.47611 85.55389 82.58417 81.49361 82.44723 86.77917 90.66945 92.47166 91.37417 87.8225 84.7 83.58833 84.58778 86.94417 90.23666 95.50417 100.5 107.3142 110.4172 106.2717 99.08916 92.09139 85.55611 83.03416 80.58167 76.15972 73.04333 71.8075 70.25444 70.83583 73.51305 75.80778 80.69167 86.01722 89.26667 92.39 96.19667 101.3717 106.0842 108.7606 104.0603 97.4325 91.67139 88.925 93.66084 100.9369 105.7958 104.8825 100.1025 97.2775 94.38 89.39083 83.43083 81.2825 82.31611 88.15583 92.30417 84.38583 78.78444 81.8875 86.80305 91.44695 96.7075 101.7847 102.7267 98.35667 94.35056 92.02306 90.94083 91.31556 90.81278 90.79916 92.12028 94.2525 98.61083 102.7025 103.2108 100.7717 98.09778 95.37473 94.53 95.63805 96.515 96.56084 96.33167 95.26694 96.40583 101.6919 105.2186 107.7933 109.2653 110.0814 110.7292 111.7867 114.0267 117.8025 121.1894 122.3136 116.9567 113.3372 111.1583 109.1825 107.6719 106.3306 104.7983 103.4606 102.6058 103.75 104.8206 107.0861 109.9642 112.8964 115.9211 118.7325 121.3314 123.2928 121.7058 115.1814 109.1003 103.9775 99.345 94.46722 91.31 88.21806 84.66888 82.435 79.75666 77.26833 75.725 72.02194 69.89528 68.9875 67.52 65.80167 64.69667 63.04028 60.38334 58.16 56.46722 55.02056 54.47667 54.43 54.29166 54.11083 53.51194 52.72805 51.98 51.23611 50.85139 50.2725 49.20194 47.85695 46.51917 45.68 43.3225 42.16417 40.9475 39.56389 37.78833 36.83083 36.0575 35.03416 34.29278 33.77278 33.2225 32.96111 32.54556 31.435 30.58833 29.72222 28.895 28.08306 27.56055 26.89333 26.42333 26.05778 25.52833 25.13361 24.39 23.72667 23.27583 22.96028 22.63083 22.25972 22.22139 22.06333 21.63445 20.50417 20.0325 19.85667 19.45639 19.09167 19.15472 19.10056 18.69167 18.32583 18.15306 18.265 18.52 18.77194 19.04333 19.13417 19.07333 19.00667 18.94 18.85 18.75333 18.69833 18.66333 18.58167 18.55833 18.52167 18.415 18.30694 18.21806 18.35667 18.48833 18.58167 18.505 18.31306 18.13833 17.965 17.80556 17.73028 17.62917 17.57667 17.51528 17.37417 17.3525 17.5325 17.405 17.42333 17.47111 17.49333 17.48917 17.47667 17.44833 17.41722 17.42417 17.43 17.40667 17.38139 17.36167 17.34194 17.32667 17.305 17.31806 17.31028 17.29833 17.285 17.27333 17.26583 17.29305 17.31917 17.31417 17.31333 17.31306 17.31167 17.31583 17.33972 17.31167 17.27528 17.23055 17.2375 17.21944 17.06833 16.93667 16.80639 16.68417 16.60167 16.59833 16.61 16.645 16.70778 16.73111 16.78083 16.65833 16.66306 16.65667 16.43083 16.30667 16.16917 16.03861 15.93806 15.90167 15.88333 15.88889 15.90667 15.91889 15.88389 15.76417 15.65139 15.56556 15.63083 15.87389 16.09945 16.17333 16.44167 16.18417
32.45833 32.72834 32.66389 32.42833 32.20528 32.4675 32.90166 33.13583 32.56916 32.86667 33.285 33.49472 33.485 33.54611 33.50167 33.395 33.40639 33.46833 33.24167 32.95667 32.77361 31.09083 30.90528 31.74472 32.30667 32.69778 33.04917 33.18083 33.42361 33.95694 35.22583 36.07389 37.23389 39.09583 41.55222 46.31361 48.67917 51.15722 53.49972 56.55917 60.33944 63.78639 67.1225 70.44889 74.26417 77.24834 79.5825 80.96472 79.90667 79.2375 83.17445 88.88167 90.62778 87.705 86.97166 86.52167 85.88861 88.85667 91.71778 93.14361 92.46583 90.57834 86.97667 86.03333 86.88722 88.54722 91.26749 95.41695 101.2011 108.5208 110.9947 107.6767 100.9383 93.83472 87.36916 83.70917 82.0325 79.4275 76.19917 74.39861 72.40361 71.84917 73.58916 75.92944 80.63667 85.57167 88.39166 91.40083 95.01556 100.4775 104.9558 109.1925 107.4725 101.3775 95.47278 91.31889 93.6125 101.4033 106.7586 107.3858 102.2561 98.435 96.20583 92.26694 85.48833 83.495 84.56278 89.03472 94.0475 90.19083 82.1675 82.1575 87.45306 93.34888 99.1125 104.6358 105.57 102.1883 99.70389 97.42583 94.05667 93.14167 92.27139 92.04083 93.61584 96.17083 100.7342 105.0544 105.8875 104.4808 101.3908 97.71944 95.1025 95.73556 96.69028 97.22167 96.26694 95.08972 98.195 103.8072 107.62 110.975 113.3814 114.295 114.5183 114.8417 115.1664 118.0817 121.0914 123.03 119.9733 115.4972 112.9156 110.7642 109.1975 108.4464 107.2808 105.3361 104.3836 104.4333 104.5831 107.0278 108.9925 111.2322 114.0875 117.0275 120.1258 122.6528 121.85 115.8722 109.8833 104.505 99.85306 95.03944 91.6375 88.55917 85.59 83.29583 80.01833 76.61777 74.98666 71.15694 69.48528 68.54916 66.51028 64.255 63.32 62.11 59.87111 57.84417 56.62555 56.10917 54.70583 54.34694 54.08916 53.9375 53.46917 52.72528 51.97333 51.20194 50.3825 49.20583 48.125 47.04222 46.07917 45.01611 42.995 41.7 40.62861 39.495 38.185 37.42778 36.58167 35.1325 34.50278 34.0525 33.60417 33.36694 32.03278 31.71917 30.89861 30.09417 29.41583 28.73195 28.24139 27.64 26.84 26.1225 25.75333 25.25361 24.49139 24.04667 23.57556 23.21528 22.86667 22.51528 22.42833 22.12667 21.76528 21.06833 20.42833 20.27444 19.9825 19.61167 19.49917 19.17972 18.68083 18.18889 18.08583 18.31333 18.57 18.83 19.07583 19.17861 19.14194 19.07583 19.00833 18.925 18.81833 18.73944 18.64389 18.54083 18.42389 18.39722 18.35167 18.31306 18.27083 18.37833 18.48583 18.57444 18.4975 18.24694 18.06111 17.8875 17.77778 17.74583 17.6175 17.51 17.21917 17.0325 17.19167 17.44444 17.45083 17.43778 17.43972 17.42333 17.39167 17.355 17.33667 17.31972 17.33167 17.35333 17.36806 17.36528 17.3625 17.34444 17.32917 17.33667 17.38028 17.38667 17.37333 17.35167 17.33444 17.31667 17.30167 17.30305 17.31 17.31 17.31167 17.3175 17.34556 17.33556 17.30417 17.295 17.29556 17.29833 17.19833 17.03972 16.8825 16.735 16.59639 16.45583 16.47361 16.52972 16.56917 16.65861 16.73444 16.6875 16.59194 16.48667 16.435 16.36667 16.23 16.08417 15.93972 15.83694 15.7725 15.78861 15.815 15.8375 15.86556 15.88472 15.77583 15.64333 15.5025 15.4175 15.56861 15.75111 15.8225 15.89944 16.18833
32.4075 32.9275 32.8475 32.4325 32.43 32.48417 32.7175 32.98417 32.98083 33.2275 33.445 33.49583 33.535 33.5575 33.51167 33.545 33.63667 33.73 33.655 33.23833 33.00417 31.445 31.09 31.62167 32.1175 32.58417 32.94833 33.13 33.46167 33.82667 34.52 35.97167 37.55416 39.7525 42.85083 46.88834 50.12 53.68083 56.72667 59.4 62.03167 64.67416 68.2575 71.42834 75.47667 79.2175 81.84583 83.66666 84.0825 82.75667 84.57417 89.325 91.13 90.625 91.115 91.32999 90.73666 90.6875 92.01334 93.30917 92.4075 91.085 89.1625 88.0625 89.375 90.85417 93.88 98.8975 104.7258 109.725 111.7825 109.3317 103.365 96.28167 90.61417 86.8475 85.2725 83.67 81.07 77.54083 74.58916 73.2 73.61084 75.62083 79.59 84.15083 87.46333 90.8125 94.56583 100.2233 104.64 109.2942 110.0217 105.12 99.41 94.1825 94.2475 102.0167 108.5025 110.3875 104.3975 99.36667 97.22 94.94833 90.45416 86.3825 85.56084 88.38417 92.275 92.37833 86.51417 83.635 87.12666 93.21916 99.095 104.8583 106.4058 104.2275 102.1283 100.5358 97.1525 94.4775 93.26667 93.55 95.175 97.98417 102.4325 105.9017 107.32 106.4725 104.4 100.5625 96.705 96.235 97.15833 97.0675 96.02666 95.60167 101.65 106.6608 111.1117 115.5275 117.8517 118.1433 117.8775 117.4992 117.2108 118.4825 121.2333 123.78 122.845 118.9225 115.7742 113.1775 111.4142 110.7992 109.3525 106.2267 105.0433 104.7375 104.3192 105.815 108.245 110.4208 112.8525 116.2575 119.9417 123.3692 121.8275 116.2733 110.6133 105.1 100.3825 95.44334 92.1675 89.6 87.16417 84.39 80.62417 77.40833 75.445 72.7275 70.66417 69.535 67.36833 64.2775 62.77 61.92916 60.9775 59.3025 57.31083 56.645 54.745 54.36167 54.1125 53.8525 53.38833 52.68583 51.87 50.99583 49.82917 47.945 47.08583 46.16333 45.53 43.97583 42.56833 41.495 40.53416 39.46917 38.64 37.82333 36.77667 35.2075 34.64667 34.26333 33.9375 33.6825 32.46667 31.93 31.15167 30.47583 29.69 29.03333 28.38 27.865 26.8625 25.95417 25.4025 24.91333 24.47667 24.065 23.64083 23.28833 22.9525 22.6125 22.4075 22.0675 21.7275 21.35333 20.8275 20.5975 20.25 19.9 19.6875 19.2675 18.7725 18.31083 18.11417 18.325 18.56917 18.81333 18.995 19.08083 19.15333 19.15 19.0675 18.97083 18.855 18.73083 18.6625 18.5825 18.5525 18.52667 18.495 18.43 18.255 18.3325 18.4475 18.6 18.5375 18.17083 17.98167 17.85 17.785 17.72833 17.66 17.5625 17.4075 17.185 17.27083 17.41167 17.47 17.42833 17.37833 17.3275 17.28917 17.25167 17.225 17.22333 17.23833 17.265 17.3 17.33083 17.335 17.33917 17.34417 17.385 17.43417 17.44667 17.4225 17.39833 17.365 17.325 17.30167 17.31 17.3125 17.315 17.32 17.33 17.34833 17.345 17.345 17.34917 17.35667 17.355 17.20333 17.01 16.83 16.6625 16.47083 16.34 16.29667 16.42667 16.605 16.70833 16.67667 16.6425 16.55 16.39 16.245 16.125 16.01667 15.9475 15.8825 15.82667 15.68 15.65 15.66833 15.7 15.76917 15.85 15.815 15.68417 15.51417 15.485 15.50167 15.59167 15.6575 15.6775 15.7325
32.99417 33.01139 32.86167 32.3825 32.52834 32.82583 32.96667 33.03389 33.29944 33.48417 33.69111 33.71361 33.66833 33.62306 33.67583 33.77 33.87667 33.98333 34.06 33.76167 33.90417 32.12833 31.15944 31.72639 32.12416 32.565 33.08916 33.32917 33.59139 34.22 34.6725 35.23611 36.89528 39.7925 43.07584 47.57417 52.31917 56.88778 60.54806 63.56583 67.15444 70.14667 72.67583 75.20917 78.50167 81.91167 84.64944 87.32555 88.87917 88.37305 88.01278 90.72667 92.51694 93.10889 93.30417 93.63139 93.15694 92.1975 92.33112 93.47472 92.245 90.96667 90.00111 89.55833 90.74055 92.47639 97.155 102.8253 107.0478 110.5125 112.5786 110.4769 106.0167 99.6675 94.69389 92.0275 90.21944 88.52222 85.71167 80.87889 75.89694 74.60917 73.88389 75.20528 78.57249 82.65222 86.66277 90.57417 94.4175 99.73306 104.3075 108.5986 110.5625 108.75 102.8528 97.28222 95.96166 103.0383 109.8783 111.0767 106.0111 100.0622 97.98833 96.12417 93.49778 89.78667 87.49361 87.8725 90.50249 93.00333 90.63306 85.21667 86.62527 92.30473 97.42333 102.9739 105.5583 104.4208 102.6417 101.1097 97.84 94.55361 94.27583 95.28416 97.34389 99.97112 103.8767 106.4836 108.1025 107.5808 105.7717 102.7444 98.89917 97.24555 97.10555 96.47166 95.79195 98.84972 104.9258 110.1006 115.6853 120.1592 122.1206 121.7264 120.7867 119.765 119.2928 119.7542 122.0725 124.9731 125.075 122.3089 118.8953 115.5825 113.6017 112.8436 111.1617 107.7408 105.4017 105.1667 104.9608 105.2661 107.7725 110.4331 113.1175 116.675 121.202 125.1897 122.7425 116.7856 111.4281 106.12 100.9203 95.97222 92.7975 90.20194 87.64806 84.80917 81.47028 78.56695 76.75333 75.24805 73.39861 71.58334 69.42778 66.3625 63.36583 61.98444 61.46306 60.4025 58.935 58.21555 55.83833 54.62361 54.30944 53.84667 53.04917 52.36028 51.69167 51.01611 48.86889 47.6175 46.5425 45.53444 44.80583 43.68278 42.47778 41.39417 40.29805 39.53917 38.73666 37.91333 36.71889 35.22 34.59195 34.2075 33.90417 33.58 32.81861 32.1325 31.06028 30.47972 29.84333 29.08889 28.17139 27.7025 27.04056 26.29833 25.5725 24.93556 24.50639 24.09583 23.71445 23.385 23.055 22.73333 22.42417 22.1125 21.805 21.37583 21.16417 21.0025 20.55639 20.0925 19.81889 19.37194 18.98083 18.57306 18.24111 18.35333 18.55167 18.77722 18.87667 18.94833 19.01889 19.0825 19.05861 18.95139 18.825 18.65417 18.64083 18.61167 18.58528 18.67833 18.63417 18.46778 18.24611 18.26167 18.35917 18.49361 18.5025 18.16694 18.01195 17.91667 17.86306 17.71639 17.63167 17.57194 17.39028 17.2 17.29444 17.40389 17.48083 17.44667 17.37667 17.29833 17.22556 17.15528 17.1175 17.12833 17.17139 17.21417 17.25972 17.295 17.30333 17.33389 17.36333 17.4 17.43806 17.47333 17.43833 17.39778 17.35667 17.31667 17.30028 17.31 17.315 17.32 17.32833 17.32167 17.26778 17.26 17.26917 17.27139 17.28028 17.32 17.25278 17.01639 16.79417 16.62194 16.48417 16.49083 16.55583 16.64861 16.84917 16.82195 16.71611 16.61833 16.52889 16.435 16.34667 16.24861 15.97833 15.92333 15.88917 15.79 15.60833 15.54472 15.54528 15.57083 15.63806 15.76806 15.7625 15.65139 15.77028 15.84417 15.85 15.90028 15.98833 16.04861 16.11
33.145 32.79333 32.34333 31.83417 32.45833 32.92361 32.74833 32.85222 33.135 33.56167 33.85361 33.94917 33.79083 33.81583 33.95528 34.10083 34.23944 34.38167 34.515 34.24139 34.43333 32.37 31.23861 31.84472 32.29417 32.91028 33.47278 33.54583 33.79389 34.41361 34.16583 35.70555 38.75555 38.82417 43.7775 49.07111 54.1725 59.00028 62.97084 66.72417 70.8275 73.85973 76.335 78.61861 81.90556 85.135 87.96584 90.66833 91.8775 92.22278 92.11778 93.40417 94.95167 95.19583 95.35083 95.41695 95.07417 94.0875 92.92583 93.40111 92.04333 90.63695 90.33139 90.7625 91.92555 95.02055 100.8117 105.5542 108.1353 110.7342 112.4219 110.9469 107.7 102.835 98.33444 95.56834 93.36194 91.12611 88.14667 84.05611 78.43972 75.98167 75.22778 75.46416 78.29583 82.13583 86.38499 90.4275 94.34361 99.16084 103.815 107.8081 110.3911 110.77 106.2322 100.6675 98.44083 104.4989 111.0469 111.7083 107.4725 101.4231 97.7975 96.23583 94.80944 92.32 90.64584 89.96833 90.09167 91.51639 89.95667 87.75583 87.69111 90.96778 95.47833 99.67222 102.9833 103.7708 102.5264 101.0336 97.7025 94.92139 95.34972 97.65 100.0322 102.5867 105.2008 107.1344 108.8197 108.7725 106.9197 104.1783 101.0258 98.04972 97.11278 96.58083 96.25306 101.8439 108.0975 114.6178 120.5781 124.9383 126.6264 125.0783 123.4667 122.1453 121.7778 122.1317 123.5106 125.9019 127.6983 126.16 122.1806 118.4175 115.9406 114.6381 112.735 109.9181 106.2589 105.6275 105.2892 105.3581 106.3275 109.7636 112.9275 117.2617 121.9722 124.3725 123.0925 117.1222 112.2564 107.1308 101.7358 97.19972 93.77 90.74583 87.80722 85.3 82.52611 79.65 78.13917 77.37278 76.16361 73.73333 71.16 68.63639 65.72833 62.72028 61.61806 60.32583 59.40445 58.79139 56.67833 54.78611 54.2625 53.53667 52.60667 51.825 51.2025 50.57306 48.25945 47.32833 46.30972 45.30056 44.68083 43.74306 42.45417 41.43667 40.35389 39.56639 38.73583 37.90389 36.70083 35.27417 34.49611 34.12611 33.83 33.54916 32.78111 32.05833 30.87861 30.33083 29.92833 29.2175 28.17639 27.68083 27.28389 26.35944 25.66583 25.02083 24.60139 24.27083 23.98611 23.62778 23.28167 22.93972 22.60417 22.26667 21.86389 21.46583 21.07833 20.83111 20.60889 20.395 20.06444 19.68611 19.27833 18.85667 18.46445 18.48083 18.58055 18.67 18.74917 18.83945 18.91972 19.0025 19.02695 18.93083 18.7775 18.59639 18.55861 18.56417 18.56278 18.70861 18.715 18.47 18.23889 18.21833 18.31167 18.40444 18.3925 18.25 18.13 18.01917 17.94722 17.76667 17.6125 17.525 17.2825 17.2025 17.26139 17.36722 17.49917 17.47833 17.39305 17.31167 17.23167 17.14833 17.07083 17.06833 17.10667 17.155 17.20333 17.26167 17.3175 17.35667 17.385 17.41167 17.43417 17.45167 17.42417 17.3925 17.35333 17.30917 17.29833 17.31 17.31 17.29889 17.24472 17.14917 17.05361 17.05028 17.09667 17.10694 17.11417 17.17667 17.21 16.97 16.91583 16.8825 16.78417 16.84 16.92778 16.98917 17.00833 16.84 16.65472 16.4925 16.5775 16.57861 16.53833 16.29806 16.03778 15.94083 15.8425 15.75611 15.59917 15.51722 15.41139 15.36333 15.525 15.66639 15.57667 15.68 15.91 16.13167 16.27 16.33417 16.40167 16.46222 16.38333
32.97 32.58417 32.22083 32.02 32.24833 32.32917 32.3475 32.595 32.97333 33.435 33.89667 34.01917 33.89 33.94833 34.0925 34.235 34.3775 34.505 34.63 34.605 34.47917 32.9375 31.41667 32.06667 32.455 33.035 33.5375 33.7425 34.01417 34.36417 34.945 38.2175 38.57917 39.32 44.04833 49.3275 54.495 59.575 64.1675 68.5225 72.6775 75.96833 78.3625 80.89833 83.78584 86.9975 90.10083 92.24416 93.89 94.69833 94.8075 95.2825 95.87833 96.38417 96.4225 96.15666 95.74583 95.075 93.97083 93.01833 91.5975 90.65166 91.00167 91.955 93.4625 98.58667 104.125 107.8758 109.735 111.2175 111.9708 110.5933 108.1875 104.8358 101.21 98.2125 95.16917 92.23416 89.1275 86.01666 81.80334 78.6075 77.9325 78.485 79.8325 82.62583 86.52833 90.2075 94.20333 98.47916 102.7925 106.5558 109.6883 111.5025 109.5 104.0408 100.9225 106.0583 111.425 112.3275 108.6758 102.9017 97.61 95.90167 95.215 93.945 92.45 91.53833 91.14 90.55833 90.2675 89.175 89.4075 91.41583 94.4425 97.36916 99.79167 101.68 101.6475 100.5133 98.6925 95.93 97.23 100.1875 103.2908 106.05 107.35 108.3292 109.645 109.8475 108.4083 105.3767 101.8175 99.5375 98.245 97.355 98.2775 104.9817 111.7525 118.8858 125.0667 129.01 130.7783 128.8133 126.105 124.6467 124.4683 124.9125 125.9067 127.7933 129.8625 129.9275 125.19 121.3425 119.1992 117.5242 115.0875 112.2175 108.7092 106.45 105.87 105.7592 105.9675 108.5592 113.0742 117.205 120.6525 122.575 122.5025 117.2925 112.4883 107.635 101.9067 97.77917 94.48 90.77667 88.18999 85.56 83.68417 81.19167 79.55 78.9125 78.24 75.45 72.68083 70.18583 67.685 64.48 62.15417 60.32 59.68583 59.185 57.06 54.83083 54.00667 53.1325 52.175 51.295 50.665 49.1725 47.68834 46.84 45.93333 45.06083 44.5375 43.70583 42.44167 41.3225 40.52833 39.51167 38.57 37.67833 36.525 35.3125 34.5875 34.20083 33.9125 33.59917 32.43917 31.8975 30.8225 30.24333 29.87 29.23417 28.36083 27.6875 27.16 26.49667 25.8725 25.23167 24.84 24.5675 24.31583 23.95833 23.5875 23.22917 22.88667 22.555 22.215 21.8425 21.4375 21.20333 21.035 20.805 20.42083 19.975 19.5425 19.0725 18.61917 18.5875 18.5725 18.51833 18.6125 18.74 18.83667 18.9 18.96333 18.9025 18.72 18.5375 18.46667 18.4775 18.4425 18.39833 18.7425 18.47 18.23167 18.17 18.25833 18.33917 18.405 18.3375 18.2375 18.1325 18.0275 17.84583 17.6475 17.4575 17.2475 17.23 17.23333 17.32583 17.465 17.4875 17.40917 17.3225 17.23583 17.145 17.08 17.03583 17.03083 17.075 17.12333 17.2225 17.33 17.37083 17.39583 17.395 17.37333 17.325 17.3175 17.33917 17.32333 17.3 17.29333 17.2775 17.2075 17.1125 17.0575 16.955 16.86083 16.83833 16.9025 16.9375 16.95583 16.995 17.02167 16.93083 17.0175 17.1 17.08417 17.04 16.9875 16.86583 16.87 16.67417 16.46667 16.3125 16.47917 16.61083 16.56 16.35083 16.16833 16.0175 15.84167 15.71167 15.5925 15.49833 15.395 15.3425 15.47333 15.515 15.545 15.775 16.0025 16.2225 16.44667 16.66083 16.775 16.7475 16.58333
32.80333 32.79028 33.00528 32.91 32.29667 32.45278 32.60917 32.64611 33.02278 33.49167 33.92167 33.95722 33.95167 34.03361 34.15195 34.26083 34.36972 34.47833 34.58667 34.67694 34.56111 33.92167 31.0725 32.48167 32.80333 33.38333 33.88556 34.15167 34.46639 34.96056 37.0825 38.73083 38.54028 39.11583 43.96917 48.39361 53.65083 58.72194 63.19889 67.9375 72.57195 76.1825 78.41084 81.05167 83.89389 87.2225 90.55944 93.06861 94.99 95.75306 95.975 96.2275 96.71056 97.16695 96.77333 96.20055 95.59944 94.62917 92.79361 91.19806 90.685 91.35806 92.52055 93.71833 95.09805 100.8278 106.1092 109.6628 110.6472 111.6217 111.3683 110.0897 108.4583 106.0464 103.5119 100.1442 96.21528 92.57139 89.3625 86.68694 83.78222 79.89166 79.24139 79.75306 81.24417 82.85472 86.45778 90.44583 93.88805 97.4225 101.2242 104.9203 108.2231 111.1683 111.3483 107.5961 104.025 108.0386 112.1531 113.305 109.6903 104.6664 98.5975 96.13139 95.78584 95.02834 93.83195 92.98194 92.22166 91.48778 90.9325 90.67751 91.02666 92.54444 94.65667 96.10084 97.50555 99.4725 100.2894 100.2167 99.39084 97.42333 98.7325 102.2792 106.3342 109.7022 110.1242 110.3142 111.1828 111.1642 110.0914 106.5833 102.5467 99.76 99.36195 98.24583 100.8769 108.1542 115.145 122.6011 128.1511 132.015 133.9442 132.1678 128.8683 127.5286 127.7256 128.485 129.2708 130.5542 132.11 132.1242 129.1453 124.7342 122.4175 120.8492 118.615 115.2267 111.3386 108.1808 106.9564 106.5269 106.7617 108.8381 111.6194 115.6442 119.0717 121.2233 121.3917 117.0794 112.7217 108.3475 103.1664 98.86 95.36083 91.41861 88.80472 85.81583 84.62972 83.80695 82.12334 81.14806 79.95528 77.2125 73.52944 71.01444 68.97916 66.34389 63.55278 60.81 59.7075 59.00778 57.7375 55.39222 54.12167 52.94917 51.87667 50.90111 50.35667 47.97611 46.90611 46.38083 45.54861 44.69472 43.78583 43.20333 42.28333 41.425 40.3375 39.21667 38.26667 37.73056 36.96861 35.88 34.90944 34.37 34.095 33.69222 32.45833 32.0825 31.17333 30.35583 29.6325 28.76889 27.88417 27.32333 26.92083 26.34361 25.95 25.55778 25.18 24.87667 24.64556 24.3 23.92667 23.55333 23.20528 22.935 22.67861 22.43722 21.93417 21.64639 21.46806 21.1775 20.72306 20.25556 19.8275 19.30361 18.77528 18.5775 18.46861 18.37361 18.45917 18.60028 18.73556 18.86833 18.96917 18.84639 18.66667 18.48 18.38028 18.35333 18.2625 18.37556 18.86583 18.50611 18.22861 18.13833 18.1925 18.30306 18.405 18.35 18.27 18.18333 18.06472 17.85417 17.62 17.35667 17.28333 17.27 17.25667 17.30528 17.41417 17.53278 17.40861 17.31667 17.23028 17.14305 17.08917 17.04361 17.005 16.99917 17.06417 17.17917 17.33 17.385 17.36361 17.3325 17.27778 17.22194 17.21083 17.24833 17.27528 17.27833 17.28139 17.17556 17.02167 16.89833 16.85361 16.78583 16.73472 16.66945 16.69583 16.7625 16.81972 16.83 16.85139 16.89861 16.95667 17.06194 16.91472 16.76083 16.59306 16.53695 16.4275 16.30694 16.26889 16.16167 16.29611 16.41667 16.5025 16.41611 16.25167 16.06917 15.87278 15.67556 15.5525 15.50167 15.44806 15.405 15.40778 15.38444 15.6175 15.87 16.095 16.31333 16.54 16.7375 16.84833 16.75222 16.65694
33.25 33.38083 34.10305 33.63917 32.87389 32.97167 33.20333 33.37528 33.55083 33.81166 34.02111 34.13028 34.07667 34.1175 34.23028 34.33333 34.43917 34.55056 34.67167 34.71917 34.6725 34.555 32.73611 31.74639 33.34333 34.00139 34.50972 34.71833 35.16861 36.79445 38.60417 38.64444 38.615 39.32167 42.80056 47.13445 51.9525 56.97889 60.59139 65.19583 69.51972 73.705 76.67834 79.62389 82.12167 85.6275 89.71667 92.48417 94.77167 95.85361 96.54694 96.86083 96.6775 96.47139 96.12167 95.59277 94.84278 93.1325 90.66805 89.24694 89.1725 89.8175 92.02056 94.67333 96.44972 101.0381 106.585 110.0597 111.0192 111.3783 110.6681 109.5375 108.7108 107.0953 105.1617 101.425 96.32584 92.75528 90.245 88.45556 85.72556 81.7675 80.24973 80.43305 82.14166 82.9475 85.77306 90.05833 93.03528 95.89722 99.57 103.1969 106.7139 110.215 112.6717 111.0408 107.9233 110.0642 113.9856 114.6692 110.7264 106.1756 100.6108 96.87111 96.10028 95.32333 94.87695 93.96806 93.39333 93.08111 92.96806 92.64584 92.5 93.49194 94.675 95.63306 96.585 98.01666 99.81639 100.4564 99.805 98.13139 100.1561 103.3125 107.3661 111.3111 112.445 112.9414 113.1858 112.3017 110.5536 107.53 103.7783 100.7225 100.0397 99.13667 103.9419 111.1342 118.33 125.2828 130.37 134.5342 137.515 137.1908 133.5967 131.4483 131.6217 132.6733 133.9264 134.8086 135.6542 134.9928 132.2769 129.0433 125.6931 123.9417 121.9017 118.7783 114.8153 111.1958 108.5833 108.0703 109.7258 109.6619 110.5672 114.1342 117.8067 120.8672 122.9608 119.1225 112.7825 108.7942 104.8878 101.4017 96.90083 92.84722 89.66028 86.31583 85.21306 84.94667 84.93917 84.39555 82.51 79.3575 75.1175 71.49111 69.38917 66.95944 64.35166 61.44167 59.74 58.91306 58.0625 57.28417 54.57417 53.08 51.95945 51.09667 49.11084 47.82083 47.01944 46.215 45.42306 44.58 43.67334 42.97222 42.45583 41.4875 39.92194 39.01417 38.33 38.17778 37.63305 36.49333 35.27583 34.68833 34.2625 33.60056 32.73278 32.26583 31.37667 30.49306 29.6075 28.72194 27.88667 27.34417 27.06694 26.7075 26.33667 25.945 25.57 25.2475 24.97083 24.64583 24.295 23.99 23.67639 23.405 23.15861 22.94111 22.385 21.98722 21.83278 21.465 20.98194 20.50972 20.0825 19.50111 18.86111 18.50417 18.3625 18.25444 18.30583 18.45305 18.72944 19.00417 18.98444 18.80167 18.61583 18.43417 18.2875 18.25417 18.25972 18.40389 18.88917 18.48833 18.22194 18.08333 18.13222 18.305 18.32583 18.25222 18.15639 18.04917 17.94333 17.76861 17.5325 17.35194 17.33055 17.31083 17.29806 17.30889 17.40917 17.48306 17.40778 17.3075 17.21972 17.14639 17.1 17.05361 17.01083 16.97083 17.02389 17.16167 17.29333 17.40694 17.38278 17.3375 17.2825 17.22583 17.19583 17.20056 17.165 17.24583 17.26556 17.12694 16.905 16.715 16.7325 16.68417 16.64972 16.55361 16.58083 16.71917 16.74889 16.72917 16.74833 16.84417 16.86 16.78278 16.52667 16.35833 16.26083 16.18556 16.08917 15.98167 16.03917 16.005 16.07639 16.19361 16.29833 16.42389 16.26778 16.06333 15.85889 15.64111 15.505 15.45917 15.42389 15.39917 15.28139 15.44028 15.72333 15.96333 16.18667 16.39 16.54194 16.61028 16.70333 16.62694 16.44333
33.7375 33.86167 33.90667 33.7225 33.455 33.50417 33.5725 33.49917 33.755 34.105 34.405 34.36917 34.2325 34.2 34.30583 34.4275 34.55333 34.69667 34.7975 34.80666 34.70583 34.0575 33.09666 31.12833 33.2775 34.35583 34.72667 35.16 36.49333 38.13833 38.3925 38.2675 38.52833 39.825 41.78416 45.63083 50.11 54.6975 58.11917 62.03 65.945 69.7925 73.635 77.00667 79.56667 83.21 87.945 91.48167 94.14 95.89417 96.86916 96.725 95.82667 95.37833 94.885 94.1875 93.05833 91.0725 88.57417 87.36833 87.365 88.31167 90.34834 94.625 97.50167 100.6042 106.05 109.8833 110.8642 110.82 110.055 107.945 107.485 106.9417 105.1267 102.07 97.05083 93.93333 93.1375 91.4 88.06167 84.29 82.08083 81.475 82.1475 82.92417 85.33666 88.98 91.7025 94.21333 97.7225 101.6817 105.27 108.9975 112.7917 113.9075 112.5625 113.4675 115.6 115.575 111.8083 107.485 103.2925 98.63333 96.96083 95.9075 95.3125 94.51 94.415 94.5075 94.64667 94.7425 95.74667 96.8525 96.665 96.09417 96.45834 97.425 99.10001 100.78 100.4375 99.83667 101.3542 103.8725 107.8283 113.2592 117.14 119.025 118.2442 115.02 111.5875 108.2908 104.4675 101.3692 100.1242 100.07 106.245 113.7583 120.8975 127.37 132.535 136.965 140.7075 142.1508 141.1 138.9617 137.9742 137.8825 138.8325 140.2867 140.965 139.56 136.32 132.67 130.0117 128.0025 125.36 122.1175 118.5492 115.1125 112.4258 110.8042 110.615 110.2258 110.605 113.8825 117.4808 120.6783 122.865 122.0392 114.5292 109.1025 105.8342 102.455 98.2075 93.5725 90.06 88.255 86.4375 85.78333 86.02 85.6775 83.62 80.66 76.85 73.4225 69.7475 67.2725 64.99667 62.7475 60.5025 59.11417 58.17 57.41333 54.8125 53.275 51.88334 50.92 48.8 47.88417 47.0775 46.255 45.42417 44.69417 43.94 43.27333 42.3375 40.6975 39.36583 38.765 38.39 38.23167 37.64333 36.8275 35.94083 35.06917 34.3775 33.6775 33.02083 32.2675 31.36417 30.49333 29.695 29.005 28.42333 27.8925 27.49083 27.105 26.705 26.305 25.98 25.67 25.37667 25.0775 24.785 24.4925 24.16833 23.8875 23.6275 23.35 22.61 22.24083 21.98 21.6525 21.175 20.7275 20.275 19.685 19.0625 18.6175 18.335 18.13333 18.1625 18.42917 18.8375 19.1025 18.99667 18.82833 18.65 18.47583 18.28917 18.255 18.24167 18.37167 18.715 18.27083 18.11167 17.9775 18.01417 18.1575 18.2175 18.1025 17.99083 17.8875 17.78417 17.64667 17.4575 17.37667 17.36417 17.355 17.34583 17.34917 17.39 17.385 17.315 17.2625 17.19333 17.13833 17.085 17.0275 16.96917 16.9625 17.01 17.13083 17.2675 17.42083 17.39083 17.315 17.23083 17.15833 17.1325 17.0025 16.93417 17.0575 17.05167 16.89333 16.8975 16.835 16.97667 16.845 16.82167 16.685 16.72 16.75917 16.69167 16.6475 16.64917 16.7575 16.7275 16.53917 16.47667 16.4375 16.415 16.28667 16.0775 15.91417 15.87083 15.845 15.86083 15.97833 16.15 16.38 16.28667 16.06 15.82917 15.60167 15.47 15.49667 15.48917 15.4475 15.41 15.5525 15.8275 16.03583 16.205 16.325 16.42833 16.37 16.57 16.61167 16.27417
33.74583 33.71472 33.74639 33.81417 33.57222 33.6825 33.74167 33.65361 33.92444 34.23583 34.51945 34.48306 34.34667 34.29639 34.43833 34.58 34.72028 34.85111 34.915 34.9525 34.87667 34.13917 33.56833 31.83528 32.65333 34.45611 34.97694 36.21 37.8 38.17805 38.1475 37.96833 38.71389 40.08667 41.87333 45.19806 49.44667 53.2175 57.12333 60.635 63.80361 67.37444 71.675 75.74223 78.45889 82.15916 86.94556 90.81111 93.90417 95.8875 96.98167 96.23917 95.13834 94.44222 93.48167 92.02111 90.90166 89.2375 86.91361 85.52306 85.38667 86.31972 88.28722 94.06 98.16611 101.005 105.3817 109.3764 110.0703 108.9325 107.4572 106.0178 105.5675 105.2742 104.2792 102.215 99.19944 97.13778 96.43417 94.40417 89.85889 86 83.54111 82.52805 82.395 83.62306 84.97667 87.60167 90.18639 92.77111 95.95417 100.2428 103.8844 107.83 112.0158 115.0992 115.1392 115.6917 116.5033 116.2267 113.0167 108.8097 105.945 102.2456 98.53667 97.025 96.12722 95.36583 95.06167 95.09222 95.27945 95.89333 99.24473 100.6172 100.1133 97.77612 97.17333 97.53333 98.77528 100.1203 101.3867 101.6586 103.1494 105.6408 109.2767 115.0794 120.4975 124.7836 124.3664 119.4842 113.4728 109.8489 104.9567 102.2283 100.5919 101.195 108.0064 115.4103 122.6275 129.2544 134.4514 138.575 142.5903 145.6872 146.7533 146.1847 144.7225 143.525 143.5567 145.5605 147.305 144.9869 140.7769 136.9008 133.6733 131.7203 128.9267 125.1344 121.74 118.35 115.2169 112.0186 110.9458 110.5814 110.5053 113.685 116.5467 119.5436 121.4192 122.0489 116.5522 109.34 106.2167 103.9028 97.90583 94.29083 91.30972 89.51917 88.77444 87.64083 88.11333 87.08167 84.48139 81.17084 77.77556 74.84556 71.31834 68.02583 65.8625 63.95333 61.53861 59.25139 58.09417 57.12861 54.80222 53.36167 51.80444 50.56833 48.80167 47.95583 47.12861 46.295 45.46695 44.77639 44.19833 43.67305 41.73722 40.23667 39.26944 38.61444 38.22916 37.93278 37.5925 36.97 36.09611 35.22222 34.37583 33.53361 33.0325 32.29417 31.21278 30.40889 29.73667 29.21167 28.6725 28.17 27.82722 27.465 27.065 26.69278 26.38444 26.09667 25.81028 25.52028 25.25 24.97556 24.66167 24.37417 24.09639 23.68667 22.88083 22.29028 22.05917 21.77333 21.30278 20.82167 20.36333 19.83972 19.22361 18.78083 18.46861 18.165 18.12333 18.51639 18.94 19.22167 19.13944 18.95222 18.7675 18.58 18.36583 18.28917 18.25 18.31444 18.46583 18.08805 17.97083 17.855 17.91417 18.05861 18.105 17.97222 17.82667 17.73 17.625 17.515 17.44083 17.40972 17.39639 17.40333 17.41722 17.40055 17.37917 17.26472 17.17361 17.15917 17.15444 17.10528 17.045 16.98333 16.92056 16.93333 16.98917 17.10972 17.2375 17.35417 17.29611 17.22583 17.14167 17.08806 17.02333 17.00722 17.04917 16.96083 16.80722 16.82778 16.89417 16.96889 16.93611 17.06417 17.16583 16.94417 16.79667 16.74778 16.55806 16.54917 16.55139 16.60833 16.50333 16.39 16.52944 16.62917 16.60806 16.49194 16.245 15.96194 15.83444 15.74333 15.67167 15.82556 16.06 16.3 16.29028 16.04833 15.805 15.565 15.41 15.47444 15.55861 15.59583 15.65806 15.72028 15.865 15.98889 16.10806 16.21417 16.21333 16.10889 16.49917 16.59639 16.24389
33.79583 33.80167 34.03111 34.28 34.56639 34.59444 34.37083 33.93889 34.09972 34.3375 34.57528 34.56389 34.44333 34.43389 34.58722 34.75 34.91695 35.03028 35.07167 35.1075 35.09806 34.63166 34.20694 32.60917 33.28584 35.52222 36.30917 37.525 38.07556 37.87972 37.79833 38.33639 39.43028 40.34083 42.65139 45.50139 48.035 52.89361 57.2175 60.74083 63.97806 67.66917 72.37417 76.18195 78.58361 82.40583 86.92389 90.58972 93.8575 95.80861 96.10861 95.10667 93.90611 93.51639 92.05666 89.84834 88.4075 86.83083 85.27084 84.10667 83.52917 84.33639 87.55417 93.36584 98.38445 101.135 104.1117 106.7994 106.9494 106.3358 105.4181 104.4114 104.0075 103.9911 103.6392 101.7175 100.2819 99.9325 98.56833 95.94722 92.12889 88.18083 85.85778 86.18111 85.58417 84.77888 85.17167 86.87083 89.09084 91.88306 95.7675 100.1978 103.2611 107.0708 111.7042 115.1617 116.4392 116.7528 117.5772 117.8475 114.6539 110.4789 107.8958 106.0294 104.0492 101.7275 99.73361 96.3511 95.67166 95.74917 95.96722 96.6875 100.1647 101.9381 101.2967 100.1886 97.78667 97.81 98.74305 99.92944 101.5208 103.6053 105.7183 107.71 110.8475 115.6842 120.4508 125.0619 126.83 123.4592 116.1786 111.7203 106.8975 103.5581 101.9417 102.3067 108.7342 116.0872 123.5442 130.0789 135.3772 138.9892 143.1553 146.9845 149.79 150.5997 150.0494 148.4658 148.1572 150.5328 152.0867 149.6239 145.7164 141.7575 137.8333 134.7239 131.8292 128.0733 124.2111 120.5092 116.8544 112.9506 111.4542 111.2356 111.2111 113.5058 114.8603 117.9708 120.5975 120.8228 118.0647 110.7467 106.0286 103.79 97.84583 95.66972 94.14139 92.22083 90.51417 91.64972 91.98583 89.88306 85.76556 82.08584 78.45055 75.96806 73.12167 69.19889 66.66028 64.67583 62.27472 59.71222 58.53417 57.94222 56.48472 53.78083 52.02278 50.57278 49.17083 48.01194 47.13167 46.17667 45.47306 44.54139 43.86833 43.73555 41.48806 40.455 39.62056 38.785 38.11333 37.81806 37.55278 36.93833 36.04195 35.0825 33.6375 32.79945 32.97639 32.11833 30.97556 30.27889 29.65667 29.14694 28.64556 28.28667 28.03889 27.72944 27.37833 27.03695 26.74167 26.4975 26.16583 25.78139 25.39917 24.99472 24.55861 24.19417 23.81167 23.39556 22.74917 22.34028 22.095 21.80083 21.44278 20.94833 20.48167 20.03028 19.58 19.18417 18.84945 18.46861 18.38 18.64556 19.04639 19.355 19.26222 19.05833 18.8675 18.67667 18.43889 18.32417 18.29 18.31278 18.41333 18.05139 17.83778 17.73917 17.79056 17.90583 17.94083 17.75083 17.66556 17.6 17.54972 17.50306 17.50167 17.50167 17.50306 17.525 17.48306 17.4325 17.36 17.17222 17.04139 17.0225 17.03 17.04556 17.00333 16.94167 16.86806 16.88667 16.96222 17.09194 17.215 17.28389 17.20167 17.12833 17.10917 17.22278 17.33 17.33028 17.28583 17.1725 17.11889 17.10778 17.15833 17.11861 17.03611 17.02167 17.1225 17.01167 16.89583 16.65917 16.41611 16.41667 16.4325 16.365 16.32583 16.36167 16.55 16.7625 16.80278 16.69306 16.41583 16.04 15.84861 15.74667 15.65306 15.73694 15.97917 16.22 16.30833 16.01833 15.7575 15.53 15.4125 15.52 15.57028 15.46417 15.53167 15.665 15.76833 15.88972 16.00306 16.04667 15.92639 15.85333 16.43083 16.59444 16.23333
33.9225 33.99667 34.1125 34.245 34.74417 34.56833 34.5 34.08583 34.18667 34.4 34.6175 34.6425 34.545 34.535 34.70917 34.895 35.16417 35.34333 35.3225 35.28083 35.24917 34.97 34.7325 33.08583 34.2625 36.36417 37.33 37.9525 37.67083 37.76 37.8675 38.65417 39.69167 40.53 42.36 45.39 48.0075 52.70833 57.07917 60.25 63.25 67.43833 72.5375 76.23666 78.73833 82.4175 86.54667 89.675 92.8875 95.09583 94.55417 92.92 91.56917 91.11 89.725 87.8525 86.32584 84.825 83.7825 82.39417 81.4625 82.18917 85.81833 92.05 97.965 101.4758 103.095 104.7642 105.39 104.745 104.1583 103.4892 103.0325 102.98 102.8592 102.92 102.9392 102.5167 100.49 97.48417 94.51417 92.07 89.91333 88.35167 86.94 86.46584 87.20583 88.795 89.61333 91.83334 96.8125 100.725 103.64 107.255 111.27 114.3242 116.8375 117.6633 118.6792 119.025 116.325 113.34 110.1075 108.1542 107.345 106.7675 104.5775 100.9333 96.995 96.56084 96.7925 98.01 101.465 102.9108 102.0225 101.13 99.63167 98.82 99.5375 100.4742 101.705 104.0942 106.3808 108.4025 111.12 114.74 119.6875 124.51 127.4117 126.39 119.8308 114.0742 109.945 106.4658 104.3433 103.46 108.7225 116.1608 123.9425 130.1283 135.3442 138.745 142.8833 146.8592 149.6375 151.37 151.9342 152.4325 153.2225 155.3808 154.57 151.7717 150.2333 147.7675 143.6183 138.8433 134.3925 130.4208 126.4183 122.035 118.56 114.935 113.68 113.6542 113.73 114.3175 114.9092 116.1933 118.935 119.6142 117.6633 112.1325 106.2725 102.3017 99.8725 98.87667 98.26417 95.7625 93.70667 95.29083 97.2225 93.925 88.08167 83.015 79.115 76.7 73.9525 70.705 67.52334 65.0925 62.77833 60.2975 58.6275 57.6575 56.53 54.13 52.33 50.83833 49.5 48.44917 47.34917 46.6175 46.465 44.385 43.44 42.7575 41.84833 40.8625 40.02667 39.08 38.1925 37.78833 37.40583 36.5875 35.74417 34.86083 33.5325 32.94167 32.915 32.115 30.84417 30.25417 29.5875 29.03333 28.67917 28.365 28.07167 27.6575 27.2275 26.84333 26.63167 26.705 26.2575 25.72167 25.2325 24.61833 24.11083 23.745 23.35833 23.00417 22.69 22.41333 22.12167 21.815 21.52917 21.08583 20.6175 20.14917 19.82833 19.5275 19.11417 18.84917 18.7075 18.8825 19.205 19.53 19.43 19.16667 18.9725 18.78667 18.51 18.3575 18.34667 18.57833 18.4775 18.10583 17.89083 17.715 17.60583 17.54833 17.445 17.52917 17.58667 17.5925 17.56917 17.52333 17.515 17.515 17.51417 17.5175 17.49167 17.41833 17.325 17.18167 16.91833 16.88 16.88333 16.89167 16.85 16.85 16.82583 16.8225 16.93583 17.06583 17.2325 17.34083 17.11 17.265 17.33667 17.32 17.325 17.32167 17.3025 17.2825 17.32917 17.35833 17.33 17.185 17.03417 17.09 17.10417 16.97833 16.8675 16.5775 16.3125 16.3425 16.33917 16.29 16.26 16.3675 16.57583 16.7825 16.95583 16.88333 16.52 16.10667 15.86167 15.7575 15.67 15.6525 15.885 16.13417 16.31917 16.05 15.76833 15.64667 15.59 15.62083 15.53417 15.415 15.30833 15.25917 15.515 15.725 15.8675 15.8175 15.64667 15.77083 16.33 16.59333 16.22583
34.13667 34.23333 34.32722 34.4725 34.83445 34.50889 34.58333 34.20222 34.31667 34.52083 34.69167 34.74194 34.67167 34.63055 34.82139 35.0775 35.43361 35.54528 35.43583 35.34584 35.26 35.17916 35.10528 33.25278 35.27667 37.00055 37.8675 37.68833 36.97722 37.39444 38.01167 38.83305 39.19333 40.13583 41.98806 45.07584 47.51333 52.06333 56.02139 58.37167 60.90944 65.28389 70.7175 75.05389 77.78333 81.1375 84.91805 87.86166 91.18 92.8275 92.1025 89.49167 88.57667 88.16056 87.21834 85.84138 84.35389 83.14833 81.80806 79.08028 79.8 80.7225 84.57417 90.58833 96.68583 100.8778 102.5408 103.3289 103.4875 102.525 101.7194 100.7656 100.8158 101.2106 101.7306 103.2017 105.4714 106.0133 104.7742 102.0628 99.18139 97.45917 95.19389 89.69167 88.2125 87.95555 88.33305 89.03166 89.66778 91.16833 96.2325 100.5619 103.7439 107.4933 111.2122 113.9353 116.6067 118.2767 119.6922 121.165 120.1767 116.9608 114.5692 111.6789 110.1353 109.5992 107.8297 105.0892 100.685 98.97667 98.67889 100.4242 103.5958 103.9822 103.1942 103.1144 101.7975 100.3258 100.3917 101.1731 102.1725 104.1067 106.6308 109.1075 111.4411 114.0556 118.8117 123.6539 127.3364 127.7792 122.3136 116.7142 113.5258 109.9458 107.1672 104.555 108.5817 115.9956 123.7242 129.5236 134.5833 138.0217 141.8392 145.72 147.7933 150.0972 151.33 152.8908 154.5378 154.7928 155.245 154.9819 154.8378 153.3442 149.2686 143.2392 136.7142 131.8697 128.0867 124.4692 120.26 116.0667 114.3308 114.0811 113.9031 114.4292 115.3692 116.1256 117.16 117.4431 116.3675 112.7558 106.2678 102.5092 101.57 101.8128 102.1231 99.89584 97.91583 99.8125 101.3425 97.65861 90.37972 84.215 79.97806 77.29305 74.3375 71.76389 68.71 65.38417 63.10417 60.94389 59.15417 58.1575 57.05167 54.18333 52.56222 51.13861 49.71667 48.80028 47.74861 47.2625 47.09306 44.75222 43.42 42.66972 41.95028 41.0825 40.28139 39.40139 38.32583 37.64611 36.74222 35.82417 35.28389 34.88222 34.24 33.59084 32.86195 31.86167 30.89194 30.32944 29.74333 29.09611 28.76139 28.35583 27.87389 27.37305 26.88083 26.45667 26.64667 26.85833 26.42833 25.87167 25.34083 24.86694 24.11167 23.525 23.26889 23.06 22.8725 22.48778 22.14833 21.84583 21.54472 21.20945 20.74917 20.26667 19.91417 19.70417 19.45111 19.23667 19.07667 19.14722 19.44833 19.73417 19.59917 19.26389 18.99417 19.17861 19.47 19.34083 19.01167 18.82861 18.39583 18.22417 18.055 17.88667 17.73639 17.61028 17.42 17.48944 17.54667 17.55583 17.56083 17.54361 17.52833 17.52833 17.51833 17.50583 17.49194 17.38333 17.29 17.19111 16.83694 16.74167 16.73805 16.69889 16.60083 16.6125 16.67667 16.75417 17.11917 17.37722 17.425 17.45889 17.38917 17.37667 17.35167 17.32694 17.32 17.32 17.29694 17.28 17.32278 17.39361 17.35167 17.20833 17.07389 17.09167 17.07056 16.96583 16.835 16.56389 16.31861 16.31 16.275 16.24139 16.215 16.32611 16.535 16.74 16.94639 16.93472 16.57417 16.16361 15.85944 15.76833 15.69528 15.6375 15.7825 16.03167 16.25361 16.09833 15.90278 15.83972 15.78 15.71194 15.61194 15.44917 15.27667 15.12278 15.27 15.55056 15.72917 15.68417 15.72111 15.81333 16.13333 16.56028 16.67667
34.6275 34.61917 34.61139 34.665 34.91027 34.83139 34.82167 34.39528 34.46639 34.655 34.77834 34.83445 34.8325 34.72778 34.92389 35.19833 35.40055 35.55445 35.54 35.42278 35.31305 35.37 35.32 33.75945 34.42833 37.30555 37.50889 37.02167 36.55111 37.16667 37.945 38.60667 39.40556 40.57333 42.07306 44.23111 48.08667 50.75889 54.84555 57.1975 59.6925 62.68778 67.9375 72.32195 75.83667 78.9775 82.24333 84.99333 88.42083 89.66778 88.61417 86.26417 85.2475 84.66278 83.97916 82.91778 81.79139 80.48666 78.15417 77.72472 78.44 79.85528 83.33833 89.23833 94.62583 99.54639 100.8567 101.7294 101.8253 100.3142 99.46556 98.91472 99.27666 100.4289 101.3744 103.6625 107.4839 109.1753 108.5217 106.1111 103.3142 100.9633 97.96389 92.96916 88.84333 88.49111 88.79389 89.22 89.63778 91.01917 94.5075 99.55972 103.2031 107.0333 110.7747 114.2269 116.9742 118.9394 120.1789 122.6133 124.3144 122.095 118.8017 116.0014 114.2778 114.2467 110.6197 107.5519 104.2442 101.5697 101.0403 103.9433 107.1228 107.0411 105.3325 105.435 105.0047 102.8817 101.4156 102.3422 104.0825 105.2033 107.0447 109.6675 111.8889 114.1033 118.13 122.8956 126.3878 127.3 124.0122 118.8028 116.5917 113.6375 110.6858 106.6967 108.5908 115.6989 123.0575 128.5078 133.2772 136.8942 139.6444 142.42 145.0692 147.4211 149.0858 150.6675 151.9908 152.0275 153.5042 154.9864 155.0836 153.7408 150.4578 145.2697 138.2733 132.8658 129.3125 126.7842 123.1058 118.4456 115.1825 114.7847 114.8111 115.4275 117.1383 116.3697 116.4133 115.5736 114.3706 112.1042 106.5822 105.7536 106.0842 105.3286 103.6019 102.0333 101.3647 101.6625 102.6917 98.92639 91.76778 85.1525 80.71362 77.9675 74.9875 72.02139 69.62861 66.03667 63.54472 61.35944 59.9375 59.0725 57.91444 54.77417 52.63805 51.17167 49.86583 48.97528 48.0875 47.4975 46.31722 44.41583 43.2875 42.52861 41.77278 40.94416 40.21556 39.2925 38.35833 37.46722 36.58139 35.81167 35.23222 34.63861 33.73417 32.90333 32.49111 31.72417 30.95167 30.38528 29.95833 29.4175 28.86389 28.35583 27.85194 27.33917 26.84917 26.49389 26.76083 26.99083 26.59306 26.04389 25.55 25.19083 24.72806 24.0525 23.81167 23.57639 23.19333 22.49778 22.15833 21.84667 21.52667 21.27195 20.87 20.36528 19.96083 19.84167 19.79472 19.625 19.47333 19.42861 19.665 19.80917 19.72278 19.51583 19.56667 19.34111 19.35861 19.28083 18.98083 18.63667 18.30333 18.01444 18.17028 18.05917 17.91333 17.74195 17.49333 17.48639 17.52528 17.53667 17.54806 17.55111 17.535 17.52167 17.51694 17.505 17.48333 17.44583 17.27917 17.16805 16.82889 16.6 16.58778 16.59472 16.52333 16.79222 17.02056 17.11417 17.19806 17.41667 17.43083 17.45194 17.44305 17.37917 17.375 17.34833 17.32167 17.31861 17.29861 17.29 17.30778 17.33306 17.3175 17.22556 17.15861 16.995 17.01472 16.96083 16.8 16.55306 16.27056 16.2875 16.25861 16.22139 16.19167 16.18278 16.35 16.56667 16.76528 16.64667 16.47417 16.17667 15.83306 15.77417 15.70972 15.63611 15.68833 15.93639 16.18444 16.18833 16.07972 16.02583 15.975 15.89361 15.73806 15.56833 15.37917 15.19583 15.21167 15.44833 15.61583 15.66417 15.70833 15.76 15.93833 16.32361 16.67805
35.0575 35.17083 35.08833 34.8525 35.03333 34.98917 34.84 34.59917 34.785 34.905 34.975 34.99667 34.935 34.80667 34.93167 35.1125 35.30167 35.47667 35.545 35.52583 35.77166 36.4 36.27 35.82333 34.7325 34.62917 36.06083 36.4075 36.69584 37.34917 38.18 38.8775 39.61917 40.87 42.30833 44.50417 47.8825 50.24833 55.18417 56.915 58.91666 61.54917 65.42 69.495 73.41167 76.98 80.59 83.06583 84.5225 84.84583 84.00584 83.3275 82.55334 81.43 81.215 81.05 79.7925 78.16 76.06917 76.25333 77.0475 78.44583 80.81583 87.32 92.72 97.28416 99.08 100.03 99.6875 98.33 97.25584 96.56333 96.8625 98.645 100.4742 102.955 107.7817 110.5233 110.66 109.1842 106.3475 103.585 100.535 96.0225 90.5425 89.00417 89.22833 89.565 89.7975 90.64083 93.5775 98.29333 102.6208 106.4325 109.915 113.7375 117.0075 119.465 120.415 122.6225 125.9717 126.7117 123.9125 120.6925 119.1825 118.6525 113.96 109.5525 106.03 103.1742 103.515 107.1325 110.5833 111.3542 108.9125 107.65 106.4567 104.75 103.8308 105.36 105.455 105.6333 107.3925 109.89 111.9917 113.99 117.58 122.1283 125.3458 126.595 125.1442 121.1333 120.2975 118.0783 113.695 108.9 108.6467 114.77 121.695 126.7367 130.9958 135.0025 137.4633 139.7033 142.185 144.275 145.54 147.3925 149.2617 150.5067 151.565 152.69 153.0058 152.3425 150.5083 146.6017 139.5675 134.0958 130.9392 128.37 125.5175 121.5592 118.4275 117.3208 117.935 117.74 117.2617 117.6983 117.2275 114.7233 112.8308 111.1625 108.9442 109.345 109.805 109.6692 106.7967 103.81 102.8442 102.1258 101.3375 98.66583 92.525 86.195 80.78584 77.8575 74.9275 71.86 69.50333 66.51 63.92083 61.6475 60.36 59.28917 58.17 55.5775 52.935 51.22833 49.9125 49.10083 48.3025 46.53 44.895 43.88 43.1475 42.40667 41.6225 40.795 40.01333 39.2275 38.345 37.425 36.56667 35.905 35.25167 34.23 33.3175 32.66333 32.37667 31.505 30.625 30.20583 30.0925 29.8 29.23 28.745 28.36833 28.09 27.7675 27.56167 27.3 27.195 26.765 26.23333 25.76 25.47833 25.1225 24.635 24.26417 23.78 23.2125 22.77417 22.40917 22.085 21.77333 21.45333 21.0225 20.55 20.23417 20.15 20.07417 20.0125 19.885 19.72 19.74167 19.7125 19.56667 19.3725 19.1625 19.1275 19.20333 19.0575 18.77 18.7325 18.3175 17.84417 17.875 18.11 18.09916 17.88833 17.695 17.63917 17.66333 17.69 17.70417 17.62583 17.54 17.52083 17.50917 17.4825 17.35583 17.42417 17.3925 17.2025 16.905 16.8675 16.83 17.21917 17.2125 17.16833 17.16 17.2025 17.19917 17.38167 17.3975 17.4175 17.41833 17.355 17.3875 17.36167 17.335 17.31667 17.29833 17.2825 17.2625 17.285 17.28 17.24583 17.0675 16.94 16.87083 17.2025 16.97 16.6375 16.34833 16.375 16.33083 16.29 16.2475 16.18417 16.17917 16.4175 16.45167 16.295 16.14 16.01833 15.8325 15.7725 15.7125 15.65083 15.6375 15.82417 16.06917 16.2 16.1725 16.13333 16.1025 16.08 15.9 15.6875 15.45417 15.26917 15.2175 15.42833 15.52833 15.6125 15.655 15.71083 15.885 16.13833 16.4225
35.19583 35.47667 35.4625 35.0525 35.18694 35.05806 34.82917 34.77806 35.06889 35.20083 35.25639 35.26028 35.0875 34.905 34.94083 35.07667 35.26667 35.38917 35.48333 35.74139 36.49833 37.26333 37.41028 37.19417 36.895 35.41111 33.61555 34.75167 36.75444 37.80389 38.62333 39.265 39.8425 40.82917 42.26167 44.62028 48.16167 50.91695 55.87 56.81583 58.38944 61.0675 64.05666 67.9375 71.71028 75.59917 79.18945 81.0425 81.38667 80.87389 80.69889 80.3575 80.30361 80.04028 78.60917 77.74611 76.87556 74.925 73.94666 74.69723 75.78 77.39889 79.85583 85.32667 90.8725 95.36222 96.93667 97.42361 96.41778 94.94583 93.93361 93.58833 93.85667 94.80139 97.72389 101.9767 106.8044 110.3117 111.5567 111.3128 110.0086 107.165 103.7144 99.47583 94.2625 89.96445 89.735 89.95583 90.24751 90.84167 93.58916 97.24778 102.0261 105.715 109.1539 111.9911 116.3742 119.0878 120.5594 122.6233 126.0858 128.6353 129.415 126.8392 124.4317 121.9583 117.0197 111.985 107.6617 104.2397 105.6231 109.48 113.38 115.1061 112.6592 109.4747 107.6753 106.0433 105.6628 105.7194 105.715 105.8369 108.0167 110.3958 112.8014 115.0058 118.1842 121.5958 124.1719 125.6567 125.1567 123.4722 122.2033 120.4525 116.6417 111.1492 108.3219 112.7911 119.7242 124.7433 128.3825 131.8608 135.0586 137.2242 139.2133 140.9664 142.4845 144.4467 146.6797 148.6497 150.3842 151.0589 151.6419 151.4942 150.9797 149.078 142.1158 136.1342 132.8825 130.0267 126.8306 123.6131 120.61 118.8264 118.5019 118.1775 117.8517 120.2061 120.1542 116.5508 112.6606 110.8375 110.0033 110.5211 111.4633 111.3625 109.0178 106.3283 104.2944 102.2308 99.80417 97.04417 92.84194 86.78333 80.60528 77.45167 74.9675 72.20834 69.46555 66.68333 64.42889 62.54944 60.77417 59.33361 58.47417 55.86417 52.79583 51.38778 50.23 49.34583 48.38 45.71667 44.78667 44.04139 43.27834 42.4625 41.35694 40.5 39.78056 39.25139 38.36083 37.41472 36.63806 35.92333 35.23639 34.34361 33.67583 33.16639 32.69833 31.46083 30.82333 30.44306 30.15583 30.00611 29.68083 29.305 28.90556 28.73111 28.56083 28.29472 27.93639 27.54083 27.06056 26.60472 26.06583 25.85889 25.45305 25.00917 24.51667 24.01 23.53167 23.27695 22.70722 22.24 21.945 21.62639 21.16667 20.74722 20.695 20.65417 20.49528 20.37222 19.98 19.80861 19.76694 19.59083 19.32861 19.09861 18.925 18.90556 18.96056 18.98417 18.93972 18.85472 18.30667 17.75722 17.79083 18.13583 18.23222 18.05694 17.94667 17.90444 17.85 17.86833 17.78528 17.6825 17.5575 17.51444 17.50833 17.46417 17.34778 17.41361 17.44333 17.30222 17.13944 17.14333 17.11806 17.18667 17.21 17.24167 17.26472 17.24917 17.22806 17.34667 17.36417 17.39694 17.43389 17.37667 17.36806 17.35972 17.34417 17.32861 17.29667 17.27083 17.27278 17.29111 17.27583 17.27861 17.07222 16.84333 16.97139 17.21361 17.20667 16.89833 16.54278 16.5 16.45861 16.41694 16.345 16.28 16.26389 16.31 16.29917 16.18917 16.06833 15.97944 15.87778 15.84167 15.80417 15.72944 15.66583 15.75778 15.90528 16.01167 16.03889 16.0575 16.08833 16.09694 15.88278 15.68167 15.50694 15.30639 15.24 15.29722 15.41167 15.53583 15.60167 15.66167 15.83167 16.085 16.33361
35.78667 35.80556 35.67083 35.28667 35.38861 35.20417 34.95333 34.93722 35.145 35.31833 35.48056 35.60139 35.4025 35.04667 35.02694 35.17667 35.3625 35.54278 36.13833 36.845 37.0775 37.34834 37.56361 37.7275 37.62667 37.07584 35.95389 34.01417 35.27306 38.29611 38.82084 39.02611 39.33416 40.56333 42.06333 45.49333 48.70167 51.55167 55.06222 56.8725 58.33139 60.65445 63.16 66.83778 70.99139 74.2125 76.96 78.11305 77.59417 76.99472 77.02167 77.0975 76.51778 75.52528 75.43584 74.88805 73.78722 72.68166 72.42472 72.91333 74.22 76.19611 78.81834 83.50833 88.78861 93.00972 94.63417 94.62805 93.97139 92.98417 92.25111 92.28167 92.60917 93.60889 95.39611 100.4617 105.4328 109.0581 111.58 113.3756 112.9669 110.8375 106.6678 101.9053 96.97667 91.81333 90.48222 90.6075 90.92861 91.43889 93.61417 96.76167 101.3797 104.6317 107.3281 110.1081 115.1925 118.5797 120.3958 122.5367 126.2053 129.1178 130.9292 130.86 129.7231 124.9733 119.6042 114.1389 109.6783 106.1956 107.7514 111.6433 116.2922 119.765 117.7142 112.7314 109.3197 107.3133 106.2681 106.2478 107.0367 108.5464 109.9239 111.495 114.5981 117.0942 119.4933 121.4258 123.4606 124.5492 124.5336 122.8928 121.9283 120.7653 118.5656 113.9375 109.3594 110.285 116.7858 122.2839 125.8403 129.0025 131.9467 134.3928 136.5808 138.3147 139.7972 141.9542 144.1819 146.3867 149.2242 150.8894 151.9139 151.7683 151.5061 150.6014 146.1875 139.9208 135.1411 131.8617 128.4864 125.5739 122.21 119.8933 119.2833 118.8658 119.4789 121.0528 121.2967 118.9753 114.8114 110.7625 109.0331 109.1372 110.2283 111.1944 109.9556 107.8725 105.4478 101.6303 98.39667 95.82833 92.3625 87.44917 81.42472 77.74917 74.94417 72.90166 70.465 67.34167 65.4975 63.99639 61.8075 59.945 58.86583 56.175 52.95639 51.67805 50.6 49.34278 46.58194 45.85 45.04583 44.36139 43.54 42.43528 41.21333 40.28667 39.66139 39.1575 38.25333 37.45333 36.72806 35.99417 35.27278 34.64528 34.13917 33.63861 32.96056 31.71 31.36361 30.96333 30.55667 30.14167 29.81917 29.50917 29.19222 29.07278 28.88833 28.57195 28.19694 27.80167 27.405 27.12722 26.55333 26.20167 25.85833 25.40417 24.85417 24.35056 23.99333 23.64722 22.97639 22.38917 22.12694 21.76611 21.25 21.00056 21.13639 21.00333 20.71194 20.33472 20.0075 19.87333 19.76333 19.61333 19.37306 19.08167 18.77917 18.64056 18.68139 18.71167 18.67805 18.8875 18.52583 18.06278 17.96833 18.265 18.22695 18.09306 18.11333 18.20167 18.03167 17.96667 17.82528 17.73195 17.59417 17.55222 17.55305 17.60083 17.82361 17.76667 17.57667 17.21306 17.06667 17.00833 17.01389 17.13139 17.17083 17.23389 17.28167 17.28167 17.26778 17.31861 17.34333 17.38194 17.40444 17.37417 17.38694 17.37972 17.36167 17.35472 17.29667 17.27083 17.29778 17.31194 17.29 17.27083 17.18194 16.89333 16.81861 16.90444 17.0075 17.03833 16.77444 16.63167 16.5875 16.53667 16.50667 16.55306 16.60111 16.57583 16.44222 16.29833 16.20833 16.1475 16.09083 16.0175 15.89833 15.78111 15.76917 15.84056 15.95639 15.95667 15.98056 16.05695 16.12083 16.03889 15.86917 15.6625 15.435 15.24056 15.25583 15.18361 15.29333 15.435 15.54889 15.60833 15.77833 16.03167 16.30028
36.0575 36.20333 35.9 35.5375 35.62083 35.40083 35.09 35.00417 35.2425 35.505 35.755 35.945 35.7025 35.2475 35.15916 35.4125 35.79917 36.69 37.4175 37.6075 37.48833 37.4775 37.5625 37.76833 37.7125 37.46083 37.28417 35.9 34.9325 37.76583 37.8875 38.12583 38.80416 39.3975 41.56583 45.6 48.4575 52.30667 55.7725 57.22 58.71333 59.84 62.23 65.50333 69.75666 72.24 73.66917 74.08666 73.5775 72.7725 71.95084 71.975 71.71584 71.76334 71.8725 71.49416 70.63583 69.0325 69.225 70.99167 72.905 75.36833 77.86166 81.7825 87.04083 90.57 91.975 92.58 92.23 91.33 90.72584 90.2825 91.1375 92.605 94.89584 98.17 103.0775 107.2525 110.78 114.1117 115.2233 113.9775 109.1817 103.4667 98.2975 93.4325 91.26833 91.3125 91.59 92.20416 94.21249 96.95416 100.8225 103.7125 106.09 109.5233 114.6225 118.3342 120.235 121.775 125.3483 128.605 130.8575 131.46 130.5925 127.2975 121.7025 116.7667 112.28 109.1017 109.7617 113.86 118.725 123.2317 122.86 118.48 112.525 109.1775 107.98 109.0958 110.39 110.5342 110.855 112.375 115.3825 117.8325 120.1925 122.1275 123.6558 124.5575 124.7175 123.295 121.6525 120.6558 119.2608 115.6325 112.0208 110.1742 113.935 119.8042 123.425 126.38 129.0058 131.4675 133.9725 135.9567 137.6625 139.93 142.31 144.8492 148.5425 150.94 151.9558 151.4775 150.845 150.6092 148.685 144.1567 138.7233 134.105 130.0492 126.9775 123.4675 121.0825 120.2958 119.92 120.1525 121.4758 121.8525 120.2917 116.0458 111.765 108.3175 106.8033 107.36 108.65 109.1517 107.2175 104.8875 101.1058 97.995 95.8925 92.16917 87.755 82.52 77.74333 74.8375 73.1275 71.17167 68.7225 67.24833 65.7725 63.4875 60.77333 59.28667 57.035 53.2 52.0125 50.925 48.39583 47.18333 46.2525 45.1425 44.235 43.4425 42.48333 41.43667 40.6025 40.04333 39.48917 38.24 37.52417 36.80666 36.11 35.43417 34.81583 34.2925 33.75667 33.03667 32.075 32.03 31.56167 31.0725 30.55833 30.055 29.7475 29.5025 29.37 29.1525 28.81 28.43083 28.055 27.70417 27.37083 27.22 26.58167 26.23333 25.745 25.24 24.92083 24.6175 23.56833 22.9775 22.445 22 21.53667 21.3525 21.3725 21.37083 21.0575 20.72333 20.36417 20.045 19.88833 19.75833 19.625 19.43333 19.14833 18.82 18.47917 18.40083 18.41 18.3275 18.31833 18.555 18.48333 18.18833 18.3625 18.31583 18.185 18.2725 18.2225 18.07417 17.975 17.88417 17.87 17.7925 17.83167 17.85667 17.8375 17.79333 17.69833 17.5875 17.0475 16.94667 16.88 16.91333 17.03667 17.155 17.2525 17.2975 17.3125 17.3025 17.29833 17.32 17.32083 17.28667 17.34 17.34333 17.39333 17.385 17.39333 17.30083 17.2825 17.33083 17.34083 17.33 17.29 17.2625 17.095 16.95667 16.91417 16.88 16.9 16.88083 16.7675 16.70833 16.68667 16.6825 16.6325 16.57833 16.5225 16.4625 16.39667 16.3425 16.31333 16.285 16.1425 15.9375 15.86083 15.885 15.9425 16.02167 16.0575 16.12667 16.14917 16.13 16.02333 15.84083 15.5725 15.33333 15.2075 15.1475 15.07917 15.1825 15.3175 15.45667 15.555 15.725 15.99083 16.215
36.22417 36.29694 36.24445 36.0425 35.78778 35.51972 35.1975 35.05584 35.33722 35.6625 35.98778 36.26361 36.00667 35.44695 35.22056 36.04417 37.36222 37.33444 37.3675 37.55472 37.48667 37.5275 37.41278 37.40778 37.45667 37.32778 37.33528 36.065 35.0475 37.9425 38.09167 38.44639 39.01583 39.0775 41.28222 45.4775 49.27166 53.60889 56.72722 59.105 59.73139 60.7575 62.2375 64.58972 67.78166 69.52583 69.80889 69.55195 69.2775 69.01972 69.05778 69.02333 68.83472 69.36389 69.59666 69.63223 67.95389 65.06667 64.97806 68.10333 70.34 74.36833 76.95778 80.28167 85.05833 87.88861 89.74917 90.50139 90.56361 89.6925 88.72139 88.12222 89.94917 91.70389 93.0525 96.59917 100.7361 104.9775 108.93 113.6339 115.6839 115.6717 111.3567 104.5461 99.01 94.42805 91.99889 92.02583 92.26805 93.04583 94.78583 96.93694 100.375 102.935 105.1853 109.0817 114.1233 117.5386 119.9894 120.8467 123.3539 126.3644 129.3692 130.9197 131.0244 128.7175 123.6383 118.6681 114.6233 111.4606 112.2553 115.7267 120.5856 125.715 127.0558 123.7078 118.115 113.3625 111.8725 112.4703 112.4725 111.2525 111.5083 113.0258 115.66 118.1722 120.7625 123.3861 124.9081 125.1367 125.0278 124.2847 122.5808 120.4992 119.5464 116.9108 113.8697 112.3939 113.0633 117.2786 121.5736 124.4325 127.0317 129.3006 131.5725 133.6389 135.8667 138.4142 141.1644 144.1881 147.29 149.6947 150.5353 150.4617 150.245 150.0656 148.8867 146.2203 141.7319 136.1442 131.1453 127.7422 124.2667 122.0494 121.1833 120.7658 120.4372 121.1433 121.3125 120.2761 116.5428 112.7092 107.6603 105.7306 105.2667 105.2 105.8464 105.15 103.5036 100.9842 97.21 94.18306 92.27306 88.88167 83.9875 78.85833 75.78917 73.82139 71.07694 69.71167 69.795 66.65972 64.7675 61.96833 59.60611 57.51167 53.64639 52.06222 50.00834 48.52111 47.34722 46.27583 45.085 43.97806 43.22417 42.46889 41.40722 40.5975 39.99472 39.39167 38.36 37.72139 37.06028 36.38 35.68028 34.99472 34.4125 33.84139 33.15861 32.51083 32.48667 32.02111 31.5425 31.01528 30.42417 30.015 29.81417 29.66444 29.40417 29.03972 28.66472 28.29583 27.94361 27.64917 27.62833 26.7575 26.13333 25.7025 25.29944 25.08417 24.575 23.22972 22.905 22.75083 21.68278 21.76278 21.6675 21.47778 21.27194 20.95333 20.63333 20.32417 20.0575 19.88111 19.74639 19.62 19.48111 19.22333 18.89417 18.43861 18.19667 18.10833 17.96305 18.41861 18.38417 18.36222 18.4875 18.45167 18.39222 18.28528 18.31083 18.05583 17.92778 17.92917 17.94028 17.95389 17.92417 17.85139 17.81028 17.78667 17.77417 17.67861 17.5775 17.02778 16.80583 16.77667 16.85583 17.06139 17.31833 17.44056 17.40083 17.40167 17.36639 17.3225 17.255 17.19444 17.17028 17.2725 17.42611 17.40278 17.41667 17.425 17.31889 17.3025 17.35972 17.36833 17.36583 17.34389 17.28194 17.18833 17.11972 17.05583 16.98583 16.92278 16.86917 16.80333 16.69167 16.63528 16.575 16.52028 16.46528 16.4775 16.47167 16.44361 16.40583 16.36806 16.33472 16.22167 16.00167 15.97111 16.0175 16.06806 16.11194 16.175 16.26028 16.21639 16.085 15.95917 15.73333 15.47833 15.23306 15.16472 15.11417 15.07194 15.11194 15.23333 15.35611 15.48083 15.62583 15.71944 15.78389
36.31667 36.3075 36.40583 36.305 36.05278 35.56028 35.15583 35.17778 35.49694 35.82667 36.16889 36.51694 36.40333 35.75639 36.25222 37.7025 37.62917 37.38222 37.30417 37.49 37.57972 37.71167 37.77834 37.69028 37.59666 37.37667 37.04806 35.525 35.01444 38.36195 38.66333 39.02167 39.43694 39.5775 41.27222 44.33972 49.43333 53.58111 57.26028 59.30167 60.0125 60.8725 62.44 64.64362 66.475 67.20917 67.16138 67.09277 67.02666 67.07584 67.50778 67.2275 66.90833 66.00694 65.2875 64.89583 63.765 61.1075 64.21111 68.09306 69.03584 71.36056 75.20722 78.39167 81.95111 85.19806 86.7925 88.13 89.255 87.72166 86.12167 86.22639 89.22334 91.21889 93.07472 95.91583 99.60417 102.9758 106.2583 110.6672 115.0014 115.6767 113.0908 105.2058 99.06416 94.79195 92.95278 92.7875 92.77917 93.29778 94.79916 96.98528 99.58694 102.125 104.37 108.7633 113.1067 116.2667 118.7792 120.445 121.7511 124.4839 127.74 130.267 131.1467 129.8858 125.4264 120.2508 116.2542 113.2047 113.8392 117.0792 122.2247 127.3742 130.1533 128.4256 122.7614 117.82 115.3189 115.2594 114.3175 112.2422 112.49 115.2842 118.7728 121.6561 124.0617 126.2519 127.3233 126.2308 125.705 125.3889 124.6358 121.7842 119.5664 118.4508 116.2714 114.9283 114.3883 115.5414 120.3147 123.1383 125.7772 128.0086 129.74 131.6283 134.0061 136.6175 139.7553 142.5717 144.8758 146.6967 147.6275 148.195 148.3903 147.8267 147.3583 146.0956 142.4564 137.2175 132.1758 128.1405 124.8375 122.9247 122.0611 121.3925 120.9614 120.5408 120.1058 118.8097 116.9142 113.4067 108.2131 104.1325 102.3875 102.3189 102.8319 102.9792 101.9389 100.4772 97.66833 94.19556 91.82806 89.70333 86.28 81.05778 77.315 74.90278 72.81111 72.23167 70.40083 67.715 65.43833 63.06166 59.91028 57.64083 54.32 50.5925 49.98333 49.145 47.72528 46.51333 45.16528 43.96639 43.25333 42.54306 41.25834 40.5325 39.92889 39.41806 38.71 37.97694 37.25444 36.53917 35.81 35.09306 34.54 34.02444 33.4925 33.21583 33.07389 32.545 31.92667 31.30833 30.6975 30.37833 30.28833 29.97611 29.65 29.27528 28.90028 28.51917 28.18806 27.87861 27.55167 26.73583 25.95306 25.5625 25.02889 24.26333 23.4875 23.17417 22.74278 22.28583 21.68722 21.80167 21.62833 21.43833 21.1725 20.875 20.58167 20.28472 20.075 19.925 19.76639 19.61833 19.47722 19.29889 18.97167 18.42083 18.15472 18.05833 18.36611 18.33444 18.26583 18.14444 17.85167 18.12 18.44944 18.43944 18.1925 17.83444 17.79833 17.81 17.84806 17.86667 17.84333 17.80055 17.76 17.72417 17.73972 17.66361 17.5775 17.49555 17.16917 17.1125 17.14056 17.31333 17.75583 17.78583 17.65139 17.53583 17.46194 17.37278 17.27833 17.19361 17.07472 17.2475 17.42583 17.33389 17.16917 17.37389 17.01139 17.2225 17.36555 17.37083 17.3675 17.32806 17.23833 17.16833 17.115 17.04528 16.97167 16.91055 16.91972 16.895 16.63972 16.51972 16.465 16.40472 16.37861 16.44917 16.42389 16.37194 16.325 16.28778 16.2925 16.26833 16.115 16.10695 16.17417 16.21222 16.19861 16.17833 16.21222 16.12028 16.02333 15.86528 15.61694 15.38583 15.24639 15.24889 15.2475 15.19889 15.11833 15.27083 15.39417 15.44056 15.56833 15.68917 15.75083
36.5975 36.56667 36.635 36.5925 36.55417 36.07667 35.3575 35.46333 35.85 36.2 36.52917 36.85333 36.99 37.41 38.70834 38.85 37.99166 37.74583 37.655 37.86417 37.895 37.8475 37.91667 37.9725 37.9275 37.67 37.32 34.945 34.995 38.59666 39.01 39.415 39.8075 40.2625 41.0925 43.55167 48.4725 52.46416 55.8475 57.985 59.56 60.80417 62.265 64.11333 65.13417 65.4425 65.3925 65.23833 65.1925 65.01334 64.52167 63.505 62.45917 63.09417 62.355 61.32833 58.9475 59.0025 63.51167 67.485 69.395 70.4925 72.595 75.335 78.39167 81.05833 82.6325 83.29833 85.33916 85.375 83.64 84.89833 88.5825 91.38333 93.44334 95.095 97.13834 100.3942 103.435 107.0467 111.2883 113.5425 112.0633 104.4342 98.61501 94.89166 93.4875 93.365 93.305 93.68667 94.5925 96.60667 98.60917 101.12 104.0558 108.835 112.5125 115.4067 118.0525 120.5675 123.0575 125.6358 128.565 130.965 132.0833 130.9375 127.4958 121.9158 117.5375 114.5758 115.0167 118.2 124.1125 129.7975 133.2025 132.22 127.095 121.635 118.4958 117.0542 114.9625 113.8208 116.9483 120.26 123.555 125.9717 127.9425 129.8508 130.1042 128.1575 126.4608 126.045 125.49 123.3142 120.2358 119.0125 118.6808 117.5483 116.505 116.3992 120.2283 122.755 125.19 127.12 128.3675 130.14 132.3717 134.8325 137.7808 140.3383 142.3175 143.7467 144.69 145.29 145.5525 145.2175 145.005 143.9342 141.19 137.1475 132.73 128.5167 125.2975 123.7658 122.9325 123.0175 123.1858 120.2675 118.495 116.3808 114.8142 111.21 106.6808 103.2008 100.8975 100.1858 100.345 100.8325 100.42 99.87334 98.1825 95.00833 91.6125 89.1775 86.9425 83.78917 79.5075 76.95917 76.47667 74.8425 72.00833 68.6325 66.1625 63.83833 60.8975 58.0475 54.335 53.135 50.6275 49.54917 48.2625 46.9475 45.42417 44.0825 43.3825 42.68666 41.23917 40.73 40.1875 39.68583 39.0725 38.24667 37.49833 36.7625 36.00583 35.22083 34.6975 34.29083 33.945 33.87 33.41583 32.79833 32.18 31.56167 30.95667 30.6825 30.71667 30.315 29.8875 29.5225 29.1425 28.75 28.35333 27.855 27.305 26.72167 26.08667 25.7375 24.76333 24.21333 23.7525 22.82917 22.86833 22.7325 21.88 21.75333 21.58 21.3775 21.08333 20.8075 20.54 20.27083 20.1225 19.97 19.81 19.65 19.48583 19.28417 18.8725 18.5275 18.51667 18.4 18.28333 18.1975 18.1125 17.94833 17.80667 17.7775 18.03167 18.09417 17.955 17.67417 17.68583 17.6875 17.73083 17.79167 17.8425 17.76833 17.715 17.6775 17.69 17.6475 17.615 17.61583 17.59333 17.5275 16.93667 16.43583 17.3375 17.60583 17.1325 16.5425 16.91083 17.60333 17.4175 17.08583 16.83 16.8125 16.6325 17.28833 16.4925 17.05083 16.25167 17.0675 17.1625 16.25667 17.0775 17.1775 17.15083 17.105 17.08417 17.01167 16.955 16.94833 17.0075 17.005 16.75667 16.46583 16.35 16.30917 16.3175 16.39 16.39167 16.31 16.245 16.18417 16.12583 16.2525 16.2375 16.25667 16.33 16.3325 16.26667 16.1625 16.13333 16.05083 15.97 15.76 15.5325 15.38 15.29 15.26417 15.31 15.285 15.30667 15.33 15.31167 15.4125 15.5525 15.6925 15.73583
36.9325 36.90361 36.87528 36.955 37.04167 36.35833 35.74667 36.03222 36.32944 36.6025 36.91861 37.11611 37.89333 39.15945 39.25195 38.88083 38.31111 38.11917 38.10167 38.12167 37.92139 37.87917 37.96194 38.00333 37.9875 37.87444 37.80583 34.87333 35.10472 38.68833 38.94417 39.37639 39.76694 40.40167 41.49611 42.81639 47.57 51.30695 54.58472 56.98083 59.07555 60.75945 61.78584 62.5275 63.94194 64.255 64.28611 63.90055 63.39583 62.31472 58.82167 55.32417 54.95305 55.55917 55.20583 54.79694 55.11889 56.56833 59.19972 62.51861 67.02917 70.20639 71.68972 72.6325 73.77805 76.27695 77.47667 77.62361 79.60667 82.11166 81.88472 84.17306 87.21667 89.93945 91.20083 91.99083 93.69611 96.38611 100.12 103.2719 105.5947 107.2958 106.0206 101.9236 98.52417 95.20389 93.83889 93.72584 93.80305 94.10056 94.53167 96.05722 98.14528 100.8233 104.0819 108.5636 112.1767 115.2258 118.1453 121.0567 124.0139 126.7364 129.4192 131.3353 132.5422 131.9933 129.9264 124.0947 119.1 116.0956 116.8539 121.1083 127.4017 132.6903 136.035 135.4589 130.7564 125.4583 120.5353 116.5211 114.7033 115.2314 119.7983 123.8108 126.54 128.5817 131.1483 133.6178 133.0558 130.305 127.7028 126.8442 125.9733 124.6122 121.7692 119.8658 119.1292 119.1961 118.5425 118.2167 120.3753 122.3217 124.2833 125.4008 127.32 129.0836 131.1122 133.4058 135.6411 137.9855 139.9717 141.5147 142.4733 143.1725 143.7633 143.9764 143.3642 141.8019 139.425 136.2733 132.8272 128.8261 125.9742 124.6903 124.0761 126.0425 126.3478 122.1775 117.9758 114.7853 112.3392 109.355 104.8875 102.1136 99.88667 99.24306 98.46777 98.13583 99.09417 98.81111 96.83417 94.43639 91.27194 89.06 87.49111 85.48167 80.99167 80.68639 83.12972 79.79083 74.59499 70.03611 67.295 64.52194 61.68055 58.72083 55.01111 53.40805 51.33833 49.60611 48.45945 47.25667 45.75945 44.39305 43.745 43.11639 41.61444 41.115 40.59333 40.03417 39.31 38.51222 37.72417 36.9525 36.20861 35.52778 34.96333 34.59472 34.37806 34.195 33.58417 33.02945 32.42916 31.80806 31.21167 30.96583 30.87833 30.43444 30.06667 29.75444 29.29583 28.735 28.35194 27.855 27.40833 26.82139 26.13556 25.72917 24.92417 24.1425 23.46333 23.46611 23.21194 22.75833 22.03389 21.77583 21.53583 21.29583 20.99 20.68167 20.45528 20.32222 20.1825 20.01639 19.82861 19.65667 19.49028 19.24306 18.7775 18.5925 18.48694 18.3375 18.18667 18.05639 17.9675 17.80778 17.75333 17.73083 17.73472 17.75444 17.79667 17.875 17.72611 17.88167 17.85111 17.8625 17.96667 17.84028 17.66167 17.62667 17.61945 17.64944 17.69 16.54306 16.13139 17.51333 17.30917 17.02778 17.315 17.38 17.20944 17.0325 17.20972 17.48528 17.11917 15.86833 15.89639 16.9525 16.82389 17.11778 17.05333 17.05 17.08222 17.27917 17.29695 17.02861 17.3375 17.38667 15.87861 16.67917 17.02 16.99055 16.98417 17.03056 17.09528 17.09833 16.90278 16.555 16.28917 16.20667 16.2175 16.20583 15.89833 15.405 15.36917 15.89444 16.08139 15.32 14.59194 16.27444 16.48167 16.44444 16.29722 16.12167 16.05583 16.02444 15.89583 15.67417 15.5175 15.42417 15.34333 15.27528 15.33917 15.39194 15.29917 15.21417 15.25556 15.34 15.42 15.52778 15.54167
