ncols         601
nrows         52
xllcorner     734418.5234
yllcorner     686236.1043
cellsize      10.0
NODATA_value  -9999.0
82 82 82 82 82 82 82 82 82 82 82 82 82 82 82 82 83 83 83 83 83 83 83 83 83 83 83 83 83 83 83 83 83 83 83 83 83 83 83 83 83 83 83 83 83 83 83 83 83 83 83 83 83 84 84 84 84 84 84 84 84 84 84 84 84 85 85 85 85 85 85 85 85 85 85 85 86 86 86 86 86 86 86 86 86 86 86 86 86 86 86 87 87 87 87 87 87 87 87 87 87 87 87 87 87 87 87 87 87 87 87 87 87 87 87 87 87 87 87 87 87 87 87 87 87 87 87 87 87 87 87 87 87 87 87 87 87 87 87 87 87 87 87 87 87 87 87 87 87 87 87 87 87 87 87 87 87 87 87 87 87 87 87 87 87 87 87 87 87 87 87 87 87 87 87 87 87 87 87 88 88 88 88 88 88 88 88 88 88 88 88 88 87 87 87 87 87 87 87 87 87 87 87 87 87 86 86 87 89 88 87 86 86 85 84 80 76 74 73 73 74 75 76 76 76 76 76 76 75 75 74 74 73 72 72 72 73 73 74 76 79 80 81 83 85 89 94 96 96 96 95 95 94 92 89 86 81 79 78 78 78 81 86 88 88 88 88 88 88 87 87 85 84 81 77 75 73 72 72 71 71 72 72 73 75 75 75 75 75 76 76 77 77 78 79 80 80 81 82 83 85 86 88 89 90 91 91 91 91 91 91 91 91 91 91 91 91 91 90 90 91 91 91 91 90 91 91 91 91 91 91 91 90 90 90 90 90 90 90 90 91 91 90 90 91 91 91 91 91 91 91 91 91 91 91 91 91 91 91 91 91 91 91 91 91 91 91 91 91 91 91 91 91 91 91 91 91 91 91 91 91 91 91 91 91 91 91 91 91 90 90 90 91 91 91 91 91 91 91 91 91 91 91 90 90 90 90 90 90 90 90 90 90 90 90 90 90 90 90 90 90 89 89 89 89 89 89 89 89 89 89 89 89 89 89 89 89 89 88 88 88 88 88 87 87 87 87 87 87 87 87 86 86 86 86 86 86 86 86 86 86 87 87 86 86 86 86 86 86 86 86 86 86 86 86 86 86 86 86 86 86 85 85 85 84 84 84 85 85 84 84 83 82 83 85 86 87 87 87 87 86 86 87 87 87 86 85 84 82 82 84 85 86 86 86 86 86 86 86 85 85 85 85 84 84 82 80 81 83 84 85 85 86 86 86 86 86 86 86 86 86 86 87 87 87 87 87 87 86 87 87 87 87 87 87 87 87 86 86 86 86 86 85 85 85 85 84 84 84 84 84 84 84 83 82 80 78 75 73 72 71 72 73 74 75 75 75 74 73 72 70 68 67 66 64 64 64 63 62 61 61
82 82 82 82 82 82 82 82 82 82 82 82 82 82 82 83 83 83 83 83 83 83 83 83 83 83 83 83 83 83 83 83 83 83 83 83 83 83 83 83 83 83 83 83 83 83 83 83 83 83 83 83 84 84 84 84 84 84 84 84 84 84 84 84 85 85 85 85 85 85 85 85 85 85 85 86 86 86 86 86 86 86 86 86 86 86 86 86 86 86 87 87 87 87 87 87 87 87 87 87 87 87 87 87 87 87 87 87 87 87 87 87 87 87 87 87 87 87 87 87 87 87 87 87 87 87 87 87 87 87 87 87 87 87 87 87 87 87 87 87 87 87 87 87 87 87 87 87 87 87 87 87 87 87 87 87 87 87 87 87 87 87 87 87 87 87 87 87 87 87 87 87 87 87 87 87 87 87 87 88 88 88 88 88 88 88 88 88 88 88 87 87 87 87 87 87 87 87 87 87 87 87 87 86 86 86 86 87 89 89 87 86 86 85 83 80 76 74 73 73 73 73 73 74 73 74 74 74 74 73 73 73 72 72 72 72 73 74 75 77 79 81 81 84 87 90 94 96 96 96 96 96 96 95 93 90 85 82 79 78 77 79 82 84 85 86 88 88 89 89 89 88 87 85 82 79 77 75 73 72 72 73 74 75 76 76 76 76 77 77 77 78 78 79 80 80 81 82 83 84 85 87 88 89 90 91 91 91 91 91 91 91 91 91 91 91 91 91 91 90 90 90 90 90 90 91 91 91 91 91 91 91 91 90 90 90 90 90 90 91 91 91 90 90 90 91 91 91 91 91 91 91 91 91 91 91 91 91 91 91 91 91 91 91 91 91 91 91 92 91 91 91 91 91 91 91 91 91 91 91 91 91 91 91 91 91 91 91 90 90 90 90 91 91 91 91 91 91 91 91 91 91 91 90 90 90 90 90 90 90 90 90 90 90 90 90 90 90 90 90 90 90 89 89 90 90 89 89 89 89 89 89 89 89 89 88 88 88 88 88 88 88 87 87 87 87 87 87 87 87 87 86 86 86 86 86 86 86 86 86 86 86 86 86 86 85 85 85 85 85 85 85 85 85 85 85 85 86 86 86 86 86 85 85 84 84 84 84 84 84 83 82 81 82 85 86 86 86 86 86 86 86 86 86 86 85 85 83 81 82 84 85 86 86 86 86 86 86 85 85 85 85 84 84 83 81 79 80 82 84 85 85 86 86 86 86 86 86 86 86 86 87 87 87 87 87 87 87 87 87 87 87 87 87 87 87 87 87 86 86 86 86 86 85 85 85 85 84 84 84 84 84 83 82 81 79 77 75 73 73 73 74 75 76 77 77 77 76 74 72 71 69 67 66 65 65 64 63 63 62 61
82 82 82 82 82 82 82 82 82 82 82 82 82 82 83 83 83 83 83 83 83 83 83 83 83 83 83 83 83 83 83 83 83 83 83 83 83 83 83 83 83 83 83 83 83 83 83 83 83 83 83 84 84 84 84 84 84 84 84 84 84 84 84 85 85 85 85 85 85 85 85 85 85 85 86 86 86 86 86 86 86 86 86 86 86 86 86 87 87 87 87 87 87 87 87 87 87 87 87 87 87 87 87 87 87 87 87 87 87 87 87 87 87 87 87 87 87 87 87 87 87 87 87 87 87 87 87 87 87 87 87 88 87 87 87 87 87 87 87 87 87 87 87 87 87 87 87 87 87 87 87 87 87 87 87 87 87 87 87 87 87 87 87 87 87 87 87 87 87 87 87 87 87 87 87 87 87 87 87 88 88 88 88 88 88 88 88 88 88 87 87 87 87 87 87 87 87 87 87 87 87 87 86 86 86 86 86 87 89 88 87 86 86 84 82 79 75 74 73 73 72 72 72 72 72 72 72 72 72 72 72 72 72 72 72 73 73 74 75 77 80 81 82 85 89 92 95 96 96 96 96 96 96 96 95 93 90 86 83 80 78 77 77 79 81 84 87 89 89 89 89 89 88 88 87 85 82 79 76 74 73 74 76 77 77 77 77 78 78 78 79 79 79 80 80 81 82 83 84 85 86 88 89 90 91 91 91 91 91 91 91 91 91 91 91 91 91 91 91 91 90 90 90 90 90 91 91 91 91 91 91 91 91 90 90 90 90 90 91 91 91 91 90 90 91 91 91 91 91 91 91 91 91 91 91 91 91 91 91 91 91 91 91 91 91 91 91 91 91 91 91 91 91 91 91 91 90 91 91 91 91 91 91 91 91 91 90 90 90 90 90 90 90 90 90 91 91 91 91 91 91 91 91 90 90 90 90 90 90 90 90 90 90 90 90 90 90 90 90 90 90 90 90 90 89 89 89 89 89 89 89 89 89 88 88 88 88 88 88 88 88 88 87 87 87 87 87 87 87 87 87 86 86 86 86 86 86 86 86 85 85 85 85 85 85 84 84 84 85 85 84 84 85 85 85 85 85 85 86 86 86 86 86 85 85 85 84 84 84 83 82 81 80 82 84 85 85 86 86 85 85 85 85 85 85 85 84 83 81 82 84 85 85 86 86 86 85 85 85 85 84 84 84 83 82 80 78 79 82 84 85 86 86 86 86 86 85 86 86 86 87 87 88 88 88 88 87 87 87 87 87 87 87 87 87 87 87 87 87 86 86 86 86 85 85 85 85 84 84 84 84 83 83 82 80 78 75 74 73 74 75 76 77 78 78 78 78 76 74 73 71 69 68 67 66 66 65 64 63 62 62
82 82 82 82 82 82 82 82 82 82 82 82 82 83 83 83 83 83 83 83 83 83 83 84 84 84 84 84 83 84 84 84 83 83 83 83 83 83 83 83 83 83 83 83 83 83 83 83 83 83 84 84 84 84 84 84 84 84 84 84 84 84 84 85 85 85 85 85 85 85 85 85 86 86 86 86 86 86 86 86 86 86 87 87 87 87 87 87 87 87 87 87 87 87 87 87 87 87 87 87 87 87 87 87 87 87 87 87 87 87 87 87 87 87 87 87 87 87 87 87 87 87 87 87 87 87 87 87 87 87 88 88 87 87 87 87 87 87 87 87 87 87 87 87 87 87 87 87 87 87 87 87 87 87 87 87 87 87 87 88 88 88 87 87 87 87 87 87 87 87 87 87 87 87 87 87 87 87 87 88 88 88 88 88 88 88 88 88 87 87 87 87 87 87 87 87 87 87 87 87 87 86 86 86 86 86 86 87 88 88 87 86 86 84 81 78 75 73 73 73 72 72 72 72 72 72 72 72 72 72 72 72 72 72 72 73 74 76 77 79 81 82 83 86 91 93 95 96 95 95 96 96 96 96 96 95 93 90 87 84 81 78 76 76 78 81 84 85 87 88 89 89 89 89 89 88 86 84 81 79 77 77 79 79 79 79 79 79 79 80 80 80 81 81 81 82 83 83 84 86 87 88 90 90 91 91 91 91 91 91 91 91 91 91 91 91 91 91 91 91 90 90 90 90 90 90 91 91 91 91 91 91 91 91 90 90 90 91 91 91 91 91 91 91 91 91 91 91 91 91 91 91 91 91 91 91 91 91 91 91 91 91 91 91 91 91 91 91 91 91 91 91 91 91 91 91 91 91 91 91 91 91 91 91 91 90 90 90 90 90 90 90 90 90 90 91 91 91 91 91 91 91 91 90 90 90 90 90 90 90 90 90 90 90 90 90 90 90 90 90 90 90 90 90 89 89 89 89 89 89 89 89 88 88 88 88 88 88 88 88 88 87 87 87 87 87 87 87 87 87 87 86 86 86 86 86 86 86 85 85 85 85 85 84 84 84 84 84 84 84 83 83 84 84 84 84 84 85 85 86 86 86 86 85 85 85 85 84 84 83 82 81 80 81 82 83 84 84 85 85 85 85 85 84 84 83 83 82 80 81 83 84 85 85 85 85 85 84 84 84 84 84 83 82 81 79 76 78 81 83 85 85 85 85 85 85 85 85 86 86 87 87 88 88 88 88 88 87 87 87 88 88 88 87 87 87 87 87 87 86 86 86 86 85 85 85 85 84 84 83 83 83 82 80 79 77 75 75 75 76 77 78 79 79 79 79 78 77 75 73 72 71 70 69 68 67 66 65 64 63 62
82 82 82 82 82 82 82 82 82 82 82 82 82 83 83 83 83 83 83 83 83 83 84 84 84 84 84 84 84 84 84 84 84 84 84 84 83 83 83 83 83 83 84 84 84 84 84 84 84 84 84 84 84 84 84 84 84 84 84 84 84 84 85 85 85 85 85 85 85 85 86 86 86 86 86 86 86 86 86 86 87 87 87 87 87 87 87 87 87 87 87 87 87 87 87 87 87 87 87 87 87 87 87 87 87 87 87 87 87 87 87 87 87 87 87 87 87 87 87 87 87 87 87 87 87 87 87 87 87 87 88 88 87 87 87 87 87 87 87 87 87 87 87 87 87 87 87 87 88 88 88 88 88 88 88 88 88 88 88 88 88 88 88 87 87 87 87 87 87 87 87 87 87 87 87 87 87 87 87 88 88 88 88 88 88 87 87 87 87 87 87 87 87 87 87 87 87 87 87 87 87 87 87 87 87 87 87 87 87 87 87 86 86 84 80 77 74 73 73 72 72 72 72 72 72 72 72 72 72 72 72 72 72 72 73 74 75 77 81 82 83 84 84 87 92 94 95 95 94 94 94 95 95 96 96 96 96 94 92 88 84 81 78 77 76 77 78 80 83 86 88 89 89 89 89 89 88 88 87 85 82 81 81 81 80 80 81 81 81 81 81 82 82 82 82 83 84 84 85 86 88 89 90 91 91 91 91 91 91 91 91 91 91 91 91 91 90 90 90 90 90 90 90 90 90 90 90 91 91 91 91 91 91 91 91 91 91 91 91 91 91 91 91 91 91 91 91 91 90 91 91 91 91 91 91 91 91 91 91 91 91 91 91 91 91 91 91 91 91 91 91 91 91 91 91 91 91 91 91 91 91 90 90 90 90 90 90 90 90 90 90 90 90 90 90 91 91 91 91 91 91 91 91 90 90 90 90 90 90 90 90 90 90 90 90 90 90 90 90 90 90 90 90 89 89 89 89 89 89 89 89 89 88 88 88 88 88 88 88 88 88 87 87 87 87 87 87 87 87 87 87 87 86 86 86 86 86 86 86 85 85 85 85 84 84 83 83 83 83 83 82 82 82 82 82 82 83 83 84 85 85 85 85 85 85 85 85 85 85 84 83 82 80 80 80 81 82 83 83 84 84 84 84 83 82 82 82 81 79 80 83 84 84 84 84 84 84 83 83 83 83 83 82 81 79 77 75 77 81 83 84 85 84 84 84 84 84 85 85 86 87 87 88 88 88 88 88 88 88 88 88 88 88 88 88 87 87 87 87 86 86 86 85 85 85 85 84 84 83 83 82 81 81 79 78 76 76 76 77 78 79 80 80 80 80 80 78 77 75 74 73 73 72 71 70 68 67 65 64 63 63
82 82 82 82 82 82 83 83 83 83 83 83 83 83 83 83 83 83 83 83 83 83 84 84 84 84 84 84 84 84 84 84 84 84 84 84 84 84 84 84 84 84 84 84 84 84 84 84 84 84 84 84 84 84 84 84 84 84 84 84 84 84 85 85 85 85 85 85 85 85 86 86 86 86 86 86 86 86 86 87 87 87 87 87 87 87 87 87 87 87 87 87 87 87 87 87 87 87 87 87 87 87 87 87 87 87 87 87 87 87 87 87 87 87 87 87 87 87 87 87 87 87 87 87 87 87 87 87 87 87 88 88 87 87 87 87 87 87 87 87 87 87 87 87 87 87 87 87 88 88 88 88 88 88 88 88 88 88 88 88 88 88 88 87 87 87 87 87 87 87 87 87 87 87 87 87 87 87 87 88 88 88 88 87 87 87 87 87 87 87 87 87 87 87 87 87 87 87 87 87 87 87 87 87 87 87 87 87 87 87 87 86 86 83 79 76 73 73 73 72 72 72 72 72 72 72 72 72 72 72 72 72 72 73 74 75 77 80 83 84 85 85 85 87 91 93 94 94 94 94 95 95 95 95 96 96 97 96 95 92 89 85 82 80 78 78 77 78 81 83 85 87 88 89 89 89 89 90 91 89 86 85 84 83 83 82 83 83 83 83 83 83 83 83 83 84 84 85 86 87 88 89 90 91 91 91 91 91 91 91 91 91 91 91 91 91 90 90 90 90 90 90 90 90 90 90 90 90 91 91 91 91 91 91 91 91 91 91 91 91 91 91 91 91 91 91 90 90 90 91 91 91 91 91 91 91 91 91 91 91 91 91 91 91 91 91 91 91 91 91 91 91 91 91 91 91 91 91 91 91 90 90 90 90 90 90 90 90 90 90 90 90 90 90 90 91 91 91 91 91 91 91 90 90 90 90 90 90 90 90 90 90 90 90 90 90 90 90 90 90 90 90 89 89 89 89 89 89 89 89 89 89 88 88 88 88 88 88 88 88 88 87 87 87 87 87 87 87 87 87 87 87 87 86 86 86 86 86 86 86 85 85 85 84 84 84 84 83 83 83 82 82 82 82 82 81 82 82 83 83 83 84 84 84 84 84 84 84 84 84 83 82 80 80 79 80 81 81 82 82 82 83 82 82 81 80 80 79 78 79 81 82 82 82 82 81 81 81 80 80 80 80 80 79 77 76 74 76 79 81 82 83 83 83 83 83 83 84 85 86 87 87 88 88 88 88 88 88 88 88 88 88 88 88 88 88 87 87 87 86 86 86 85 85 85 84 84 83 82 82 81 80 80 78 77 77 77 78 79 80 81 81 81 81 81 80 79 77 76 75 75 74 74 73 71 69 67 66 65 64 63
82 82 83 83 83 83 83 83 83 83 83 83 83 83 83 83 83 83 83 83 84 84 84 84 84 84 84 84 84 84 84 84 84 84 84 84 84 84 84 84 84 84 84 84 84 84 84 84 84 84 84 84 84 84 84 84 84 84 84 84 84 84 85 85 85 85 85 85 85 86 86 86 86 86 86 86 86 87 87 87 87 87 87 87 87 87 87 87 87 87 87 87 87 87 87 87 87 87 87 87 87 87 87 87 87 87 87 87 87 87 87 87 87 87 87 87 87 87 87 87 87 87 87 87 87 87 87 87 87 87 88 88 88 87 87 87 87 87 87 87 87 87 88 88 87 87 87 87 88 88 88 88 88 88 88 88 88 88 88 88 88 88 88 88 87 87 87 87 87 87 87 87 87 87 87 87 87 87 88 88 88 88 88 87 87 87 87 87 87 87 87 87 87 87 87 87 87 87 87 87 87 87 87 87 87 87 87 87 87 87 87 86 86 83 77 74 73 72 73 73 72 72 72 72 72 72 72 72 72 72 72 72 72 73 74 76 79 82 85 86 86 86 86 87 89 90 91 92 94 95 95 96 95 96 96 96 96 96 96 95 93 90 87 85 83 81 80 79 78 79 81 83 86 88 89 90 90 91 93 92 90 88 86 85 85 85 85 85 85 84 84 84 84 84 84 85 85 86 87 88 89 90 91 91 91 91 91 91 91 91 91 91 91 91 91 91 91 90 90 90 91 90 90 90 90 90 90 90 91 91 91 91 91 91 91 91 91 91 91 91 91 91 91 91 91 90 90 90 90 91 91 91 91 91 91 91 91 91 91 91 90 90 90 91 91 91 91 91 91 91 91 91 91 91 91 91 91 91 91 90 90 90 90 90 90 90 90 90 91 91 90 90 90 90 90 91 91 91 91 91 91 90 90 90 90 90 90 90 90 90 90 90 90 90 90 90 90 90 90 90 90 90 89 89 89 89 89 89 89 89 89 89 88 88 88 88 88 88 88 88 88 87 87 87 87 87 87 87 87 87 87 87 87 87 87 87 86 86 86 86 86 86 85 85 85 85 84 84 84 84 83 83 83 82 81 81 81 81 81 81 81 81 82 82 82 82 82 83 83 83 82 82 81 80 79 79 79 79 80 80 81 81 81 80 79 79 78 78 77 77 79 79 78 78 78 78 77 77 76 76 76 76 76 75 75 74 73 74 77 79 80 80 81 81 82 82 82 83 84 85 86 87 87 88 88 88 88 88 88 88 88 88 88 88 88 88 87 87 87 86 86 85 85 85 84 84 83 83 82 81 80 79 79 78 77 78 79 80 81 82 82 83 83 82 82 81 79 78 77 77 77 76 75 74 72 70 68 67 66 64 63
83 83 83 83 83 83 83 83 83 83 83 83 83 83 83 83 83 83 83 84 84 84 84 84 84 84 84 84 84 84 84 84 84 84 84 84 84 84 84 84 84 84 84 84 84 84 84 84 84 84 84 84 84 84 84 84 84 84 84 84 84 85 85 85 85 85 85 85 85 86 86 86 86 86 86 86 87 87 87 87 87 87 87 87 87 87 87 87 87 87 87 87 87 87 87 87 87 87 87 87 87 87 87 87 87 87 87 87 87 87 87 87 87 87 87 87 87 87 87 87 87 87 87 87 87 87 87 87 87 87 88 88 88 88 87 87 87 87 87 87 87 88 88 88 87 87 87 87 88 88 88 88 88 88 88 88 88 88 88 88 88 88 88 87 87 87 87 87 87 87 87 87 87 87 87 87 87 87 88 88 88 88 87 87 87 87 87 87 87 87 87 87 87 87 87 87 87 87 87 87 87 87 87 87 87 87 87 87 87 87 87 86 85 81 76 74 72 72 73 73 73 72 72 72 72 72 72 72 72 72 72 72 72 73 75 78 82 84 87 87 87 87 87 87 88 88 89 91 93 95 96 96 96 96 96 96 96 97 97 96 96 94 91 89 88 86 84 82 81 80 80 81 84 86 87 88 89 91 93 92 91 89 88 87 87 87 87 86 86 86 86 86 85 86 86 86 86 87 88 89 90 90 91 91 91 91 91 91 91 91 91 91 91 91 91 91 91 90 90 90 91 90 90 90 90 90 90 91 91 91 91 91 91 91 91 91 91 91 91 91 91 91 91 91 90 90 90 90 90 91 91 91 91 91 91 91 91 91 91 90 90 90 90 90 91 91 91 91 91 91 91 91 91 91 91 91 91 90 90 90 90 90 90 90 90 90 90 90 91 91 90 90 90 90 90 90 91 91 91 91 91 90 90 90 90 90 90 90 90 90 90 90 90 90 90 90 90 90 90 90 90 89 89 89 89 89 89 89 89 89 89 89 88 88 88 88 88 88 88 88 88 88 88 88 87 87 87 87 87 87 87 87 87 87 87 87 87 87 87 86 86 86 86 86 85 85 85 85 85 84 84 84 83 83 82 82 82 81 81 80 80 80 81 81 80 80 81 81 81 81 81 80 80 79 78 78 77 77 78 78 78 78 78 78 77 77 76 76 75 76 76 76 76 75 75 75 74 74 74 73 73 73 73 73 73 72 71 72 74 75 76 77 78 79 80 80 80 81 83 85 85 86 87 87 88 88 88 88 88 88 88 88 88 88 88 87 87 87 86 86 86 85 85 85 84 84 83 82 82 81 80 80 79 79 78 79 80 82 82 83 83 83 83 83 82 81 80 79 79 78 78 77 76 74 72 70 68 67 66 65 64
83 83 83 83 83 83 83 83 83 83 83 83 83 83 83 83 83 83 83 84 84 84 84 84 84 84 84 84 84 84 84 84 84 84 84 84 84 84 84 84 84 84 84 84 84 84 84 84 84 84 84 84 84 84 84 84 84 84 84 84 84 85 85 85 85 85 85 85 85 86 86 86 86 86 86 86 87 87 87 87 87 87 87 87 87 87 87 87 87 87 87 87 87 87 87 87 87 87 87 87 87 87 87 87 87 87 87 87 87 87 87 87 87 87 87 87 87 87 87 87 87 87 87 87 87 87 87 87 87 87 87 87 87 88 88 88 88 88 88 88 88 88 88 88 87 87 87 87 87 87 88 88 88 88 88 88 88 88 88 88 88 88 88 87 87 87 87 87 87 87 87 87 87 87 87 87 87 87 87 88 88 88 87 87 87 87 87 87 87 87 88 88 87 87 87 87 87 87 87 87 87 87 87 87 87 87 87 87 87 87 87 85 83 79 76 74 72 72 73 73 73 73 72 72 72 72 72 72 72 72 72 72 73 74 75 79 85 87 88 88 88 88 88 88 88 88 88 90 93 94 96 96 96 96 96 97 97 97 97 97 97 96 95 94 93 92 89 87 85 83 81 81 81 82 84 86 89 90 91 91 90 90 89 89 89 89 88 88 87 87 87 87 87 87 87 87 87 88 89 89 90 91 91 91 91 91 91 91 91 91 91 91 91 91 91 91 91 90 90 90 90 90 90 90 90 90 90 91 91 91 91 91 91 91 91 91 91 91 91 91 91 91 91 91 91 90 90 90 90 90 90 91 91 91 91 91 91 91 90 90 90 90 90 90 90 91 91 91 91 91 91 91 91 91 91 91 91 90 90 90 90 90 90 90 90 90 90 90 91 91 91 90 90 90 90 90 90 90 90 90 90 90 90 90 90 90 90 90 90 90 90 90 90 90 90 90 90 90 90 90 89 89 89 89 89 89 89 89 89 89 89 89 89 88 88 88 88 88 88 88 88 88 88 88 88 88 87 87 87 87 87 87 87 87 87 87 87 87 87 87 86 86 86 86 86 86 86 85 85 85 85 85 84 84 84 83 83 82 82 81 81 81 80 80 79 79 79 79 79 79 78 78 77 77 77 77 76 76 76 76 76 75 75 75 74 74 74 74 74 73 74 73 73 73 73 72 72 72 72 71 71 71 71 71 70 70 70 70 71 72 72 73 74 76 77 78 78 80 82 83 84 85 86 87 87 88 88 88 88 88 88 88 88 88 87 87 87 87 86 86 86 85 85 85 84 83 83 82 82 82 81 81 81 80 80 80 82 83 83 84 84 84 84 83 83 82 81 81 80 80 79 77 76 74 71 70 68 67 66 65 64
83 83 83 83 83 83 83 83 83 83 83 83 83 83 83 83 83 83 84 84 84 84 84 84 84 84 84 84 84 84 84 84 84 84 84 84 84 84 84 84 84 84 84 84 84 84 84 84 84 84 84 84 84 84 84 84 84 84 84 84 85 85 85 85 85 85 85 85 85 86 86 86 86 86 86 87 87 87 87 87 87 87 87 87 87 87 87 87 87 87 87 87 87 87 87 87 87 87 87 87 87 87 87 87 87 87 87 87 87 87 87 87 87 87 87 87 87 87 87 87 87 87 87 87 87 87 87 87 87 87 87 87 87 88 88 88 88 88 88 88 87 87 87 87 87 87 87 87 87 87 87 87 88 88 88 88 88 88 88 88 88 88 87 87 87 87 87 87 87 87 87 87 87 87 87 87 87 87 87 87 87 87 87 87 87 87 87 87 87 88 88 88 87 87 87 87 87 87 87 87 87 87 87 87 87 87 87 87 87 87 86 85 82 79 75 74 72 72 73 73 73 73 72 72 72 72 72 72 72 72 72 73 73 75 77 81 86 88 89 89 89 89 90 89 89 88 88 89 91 93 94 95 96 96 97 97 97 97 97 97 97 97 97 96 96 95 93 91 89 87 84 83 82 83 85 87 90 91 90 90 90 90 90 90 90 90 89 89 89 88 88 88 88 88 88 88 88 89 89 90 90 91 91 91 91 91 91 91 91 91 91 91 91 91 91 91 91 91 90 90 90 90 90 90 91 91 91 91 91 91 91 91 91 91 91 91 91 91 91 91 91 91 91 91 90 90 90 90 90 90 90 90 91 91 91 91 91 91 90 90 90 90 90 90 90 91 91 91 91 91 91 91 91 91 91 91 91 90 90 90 90 90 90 90 90 90 90 90 91 91 91 90 90 90 90 90 90 90 90 90 90 90 90 90 90 90 90 90 90 90 90 90 90 90 90 90 90 90 90 89 89 89 89 89 89 89 89 89 89 89 89 89 89 89 89 88 88 88 88 88 88 88 88 88 88 88 88 88 88 88 88 88 87 87 87 87 87 87 87 87 87 86 86 86 86 86 86 86 86 86 86 85 85 85 85 84 84 83 83 82 82 81 81 80 80 79 79 79 79 78 78 77 77 77 77 77 76 76 76 75 75 75 74 74 74 74 74 74 73 73 73 73 73 73 72 72 72 72 71 71 71 71 71 70 70 70 70 69 69 69 70 71 71 73 74 75 76 77 80 81 82 83 85 86 87 87 88 88 88 88 88 88 88 87 87 87 87 87 86 86 86 85 85 85 84 84 83 83 83 82 82 82 82 81 81 81 82 83 84 84 84 84 84 84 83 83 82 82 81 80 79 77 75 73 71 69 68 67 66 65 64
83 83 83 83 83 83 83 83 83 83 83 83 83 83 83 83 83 84 84 84 84 84 84 84 84 84 84 84 84 84 84 84 84 84 84 84 84 84 84 84 84 84 84 84 84 84 84 84 84 84 84 84 84 84 84 84 84 84 84 84 85 85 85 85 85 85 85 85 85 86 86 86 86 86 87 87 87 87 87 87 87 87 87 87 87 87 87 87 87 87 87 87 87 87 87 87 87 87 87 87 87 87 88 87 87 87 87 87 87 87 87 87 87 87 87 87 87 87 87 87 87 87 87 87 87 87 87 87 87 87 87 87 87 87 88 88 88 88 87 87 87 87 87 87 87 87 87 87 87 87 87 87 88 88 87 88 88 88 88 88 88 87 87 87 87 87 87 87 87 87 87 87 87 87 87 87 87 87 87 87 87 87 87 87 87 87 87 87 87 88 88 88 87 87 87 87 87 87 87 87 87 87 87 87 87 87 89 88 87 87 86 85 83 79 75 74 73 72 73 73 73 72 72 72 72 72 72 72 72 72 72 73 74 76 79 83 87 89 89 90 90 90 92 91 89 88 88 88 89 89 90 92 94 96 96 97 97 97 97 97 97 97 97 97 97 96 96 94 92 90 88 87 87 87 88 90 92 92 91 90 90 90 90 90 90 90 90 90 90 90 89 89 89 89 89 89 90 90 90 90 91 91 91 91 91 91 91 91 91 91 91 91 91 91 91 91 91 91 91 91 91 91 91 91 91 91 91 91 91 91 91 91 91 91 91 91 91 91 91 91 91 91 91 91 90 90 90 90 90 90 90 90 91 91 91 91 91 91 90 90 90 90 90 90 90 90 90 90 90 91 91 91 91 91 91 91 90 90 90 90 90 90 90 90 90 90 90 90 91 91 91 91 91 90 90 90 90 90 90 90 90 90 90 90 90 90 90 90 90 90 90 90 90 90 90 90 90 90 90 90 89 89 89 89 89 89 89 89 89 89 89 89 89 89 89 88 88 88 88 88 88 88 88 88 88 88 88 88 88 88 88 88 88 88 87 87 87 87 87 87 87 87 87 87 87 87 87 87 87 87 86 86 86 86 86 85 85 84 84 83 83 82 82 81 81 81 81 80 80 79 79 78 78 78 77 77 77 77 76 76 76 76 76 75 75 75 75 75 75 74 74 74 74 74 73 73 73 73 73 72 72 72 72 71 71 71 70 70 69 69 69 69 69 70 71 72 73 75 77 79 80 81 84 85 86 87 87 87 87 87 87 87 87 87 87 87 87 86 86 86 86 85 85 85 84 84 84 83 83 83 83 83 83 82 82 82 83 83 84 84 84 84 85 84 84 83 83 82 81 80 78 76 74 72 70 69 68 67 66 66 65
83 83 83 83 83 83 83 83 83 83 83 83 83 83 83 83 84 84 84 84 84 84 84 84 84 84 84 84 84 84 84 84 84 84 84 84 84 84 85 85 85 84 84 84 84 84 84 84 84 84 84 84 84 84 84 84 84 84 84 84 85 85 85 85 85 85 85 85 85 86 86 86 86 86 87 87 87 87 87 87 87 87 87 87 87 87 87 87 87 87 87 87 87 87 87 87 87 87 87 88 88 88 88 88 87 87 88 88 88 87 87 87 87 87 87 87 87 87 87 87 87 87 87 87 87 87 87 87 87 87 87 87 87 87 88 88 88 88 87 87 87 87 87 87 87 87 87 87 87 87 87 87 87 88 88 88 88 88 88 88 87 87 87 87 87 87 87 87 87 87 87 87 87 87 87 87 87 87 87 87 87 87 87 87 87 87 87 87 87 87 88 88 87 87 88 87 87 87 87 87 87 87 87 87 87 88 89 89 87 87 86 85 82 79 75 73 72 72 73 73 72 72 72 72 72 72 72 72 72 72 72 73 74 77 81 85 87 89 91 90 90 90 92 91 89 89 90 89 88 88 88 90 92 93 94 95 96 96 96 96 96 96 97 97 97 97 97 96 93 92 91 90 89 89 89 90 92 92 90 90 90 90 90 90 90 90 90 90 90 90 90 90 90 90 90 90 90 90 90 90 91 91 91 91 91 91 91 91 91 91 91 91 91 91 91 91 91 91 91 91 91 91 91 91 91 91 91 91 91 91 91 91 91 91 91 91 91 91 91 91 91 91 91 90 90 90 90 90 90 90 90 90 91 91 91 91 91 91 90 90 90 90 90 90 91 91 90 90 90 90 91 91 91 91 91 90 90 90 90 90 90 90 90 90 90 90 90 90 90 91 91 91 91 90 90 90 90 90 90 90 90 90 90 90 90 90 90 90 90 90 90 90 90 90 90 90 90 90 90 90 89 89 89 89 89 89 89 89 89 89 89 89 89 89 88 88 88 88 88 88 88 88 88 88 88 88 88 88 88 88 88 88 88 88 88 87 87 87 87 87 87 87 87 87 87 87 87 87 88 87 87 87 87 87 86 86 86 85 84 84 83 83 83 82 82 82 82 81 80 80 80 79 79 79 78 78 78 78 78 77 77 77 77 77 76 76 76 76 76 75 75 75 75 75 74 74 74 74 74 74 73 73 73 72 72 71 71 70 69 69 68 68 68 68 68 69 71 72 74 76 77 79 82 83 85 86 86 87 87 87 86 86 86 86 86 86 86 86 86 86 86 85 85 85 85 84 84 84 84 84 83 83 83 83 82 82 83 83 84 84 84 84 85 85 84 83 83 81 80 79 77 75 73 71 70 69 69 68 67 67 66
83 83 83 83 83 83 83 83 83 83 83 83 83 83 84 84 84 84 84 84 84 84 84 84 84 84 84 84 84 84 84 84 84 85 85 85 85 85 85 85 85 85 85 85 84 85 85 85 84 84 84 84 84 84 84 84 84 84 84 85 85 85 85 85 85 85 85 85 85 86 86 86 86 86 87 87 87 87 87 87 87 87 87 87 87 87 87 87 87 87 87 87 87 87 87 87 87 88 88 88 88 88 88 88 88 88 88 88 88 88 88 88 88 87 87 87 87 87 87 87 87 87 87 87 87 87 87 87 87 87 87 87 87 87 87 88 88 88 88 87 87 87 87 87 87 87 87 87 87 87 87 87 87 88 88 88 88 88 88 88 87 87 87 87 87 87 87 87 87 87 87 87 87 87 87 87 87 87 87 87 87 87 87 87 87 87 87 87 87 87 87 87 87 87 88 88 87 87 87 87 87 87 87 87 87 87 89 88 87 87 87 85 82 79 75 73 72 72 72 72 72 72 72 72 72 72 72 72 72 72 72 73 74 78 83 86 88 90 92 91 89 89 89 89 89 90 91 91 89 88 88 88 89 89 90 91 94 95 96 96 96 96 96 97 97 97 97 96 93 92 92 91 89 89 89 90 91 91 90 90 90 90 90 90 90 90 90 90 90 90 90 90 90 90 90 90 90 90 90 91 91 91 91 91 91 91 91 91 91 91 91 91 91 91 91 91 91 91 91 91 91 91 91 91 91 91 91 91 91 91 91 91 91 91 91 91 91 91 91 91 91 91 91 90 90 90 90 90 90 90 90 90 91 91 91 91 90 90 90 90 90 90 90 90 91 91 91 91 91 90 90 90 90 90 90 90 90 90 90 90 90 90 90 90 90 90 90 90 90 90 91 91 91 90 90 90 90 90 90 90 90 90 90 90 90 90 90 90 90 90 90 90 90 90 90 90 90 90 90 90 89 89 89 89 89 89 89 89 89 89 89 89 89 89 88 88 88 88 88 88 88 88 88 88 88 88 88 88 88 88 88 88 88 88 88 88 88 88 88 88 88 88 87 87 87 87 87 88 88 88 87 87 87 87 86 86 86 86 85 84 84 84 84 84 83 83 83 82 81 81 81 81 80 80 80 80 80 80 79 79 79 78 78 78 78 77 77 77 76 76 76 76 76 76 75 75 75 75 75 75 74 74 73 73 72 72 71 71 70 70 69 68 68 67 67 68 68 69 71 73 75 77 80 81 83 84 86 86 86 86 85 85 85 85 85 85 85 86 86 86 86 86 85 85 85 85 84 84 84 84 84 83 83 83 83 83 83 84 84 84 84 85 85 85 84 83 82 80 79 77 76 74 72 71 71 70 69 69 69 68 68
83 83 83 83 83 83 83 83 83 83 83 83 83 84 84 84 84 84 84 84 84 84 84 84 84 84 84 84 84 84 84 84 84 85 85 85 85 85 85 85 85 85 85 85 85 85 85 85 85 85 85 85 84 84 84 84 84 84 84 84 84 85 85 85 85 85 85 85 85 85 86 86 86 86 87 87 87 87 87 87 87 87 87 87 87 87 87 87 87 87 87 87 87 87 87 87 88 88 88 88 88 88 88 88 88 88 88 88 88 88 88 88 88 88 87 87 87 87 87 87 87 87 87 87 87 87 87 87 87 87 87 87 87 87 87 87 88 88 88 87 87 87 87 87 87 87 87 87 87 87 87 87 87 88 88 88 88 88 88 88 87 87 87 87 87 87 87 87 87 87 87 87 87 87 87 87 87 87 87 87 87 87 87 87 87 87 87 87 87 87 87 87 87 87 87 87 87 87 87 87 87 87 87 87 87 87 88 88 87 87 87 84 81 78 74 73 72 72 72 72 72 72 72 72 72 72 72 72 72 72 72 73 75 79 85 87 88 90 92 92 89 89 89 88 88 89 91 91 89 89 89 89 88 88 88 90 92 93 94 95 96 96 96 96 96 96 96 95 93 92 92 91 89 89 90 90 90 90 90 90 90 90 90 90 90 90 90 90 90 90 90 91 91 91 91 91 91 91 91 91 91 91 91 91 91 91 91 91 91 91 91 91 91 91 91 91 91 91 91 91 91 91 91 91 91 91 91 91 91 91 91 91 91 91 91 91 91 91 91 91 91 91 91 90 90 90 90 90 90 90 90 90 91 91 91 90 90 90 90 90 91 91 91 91 91 91 91 91 91 91 90 90 90 90 90 90 90 90 90 90 90 90 90 90 90 90 90 90 90 90 90 90 90 90 90 90 90 90 90 90 89 90 90 90 90 90 90 90 90 90 90 90 90 90 90 90 90 90 90 90 89 89 89 89 89 89 89 89 89 89 89 89 89 89 88 88 88 88 88 89 89 89 88 88 88 88 88 88 88 88 88 88 88 88 88 88 88 88 88 88 88 88 88 88 88 88 88 88 88 88 88 88 87 87 87 86 86 86 85 85 84 84 85 85 85 84 83 83 82 82 82 82 82 81 81 81 81 81 81 80 80 80 79 79 79 79 78 78 78 78 78 78 77 77 77 76 76 76 76 75 75 74 74 74 73 73 72 72 71 70 70 69 68 67 67 67 67 68 69 70 73 75 77 79 81 83 84 85 84 84 83 83 84 83 83 83 84 85 85 86 86 86 85 85 85 85 84 84 84 84 84 84 83 83 83 83 84 84 84 84 84 84 85 84 83 82 81 79 78 76 75 74 72 72 72 71 71 70 70 69 69
83 83 83 83 83 83 83 83 83 83 83 83 83 84 84 84 84 84 84 84 84 84 84 84 84 84 84 84 84 84 84 84 84 84 85 85 84 85 85 85 85 85 85 85 85 85 85 85 85 85 85 85 85 84 84 84 84 84 84 84 84 84 84 84 84 84 85 85 85 85 85 86 86 86 86 87 87 87 87 87 87 87 87 87 87 87 87 87 87 87 87 87 87 87 88 88 88 88 88 88 88 88 88 88 88 88 88 88 88 88 88 88 88 88 87 87 87 87 87 87 87 87 87 87 87 87 87 87 87 87 87 87 87 87 87 87 88 88 88 87 87 87 87 87 87 87 87 87 87 87 87 87 88 88 88 88 88 88 88 88 87 87 87 87 87 87 87 87 87 87 87 87 87 87 87 87 87 87 87 87 87 87 87 87 87 87 87 87 87 87 87 87 87 87 87 87 87 87 87 87 87 87 87 87 87 87 87 87 87 87 87 84 79 76 73 72 72 72 72 72 72 72 72 72 72 72 72 72 72 72 72 74 77 81 86 88 89 90 92 91 89 89 89 89 88 89 89 89 89 89 91 90 89 88 88 89 89 90 90 92 95 96 96 96 97 96 94 93 93 92 90 90 89 90 91 91 90 90 90 90 90 90 90 90 90 90 90 90 90 90 90 91 91 91 91 91 91 91 91 91 91 91 91 91 91 91 91 91 91 91 91 91 91 91 91 91 91 91 91 91 91 91 91 91 91 91 91 91 91 91 91 91 91 91 91 91 91 91 91 91 91 91 90 90 90 90 90 90 90 90 91 91 90 90 90 90 90 90 90 91 91 91 91 91 91 91 91 91 91 91 90 90 90 90 90 90 90 90 90 90 90 90 90 90 90 90 90 90 90 90 90 90 90 90 90 90 90 90 89 89 89 89 89 90 90 90 90 90 90 90 90 90 90 90 90 90 91 90 90 90 89 89 89 89 89 89 89 89 89 89 89 89 89 89 88 88 88 88 89 89 89 89 89 89 89 89 88 88 88 88 88 88 88 88 88 88 88 88 88 88 88 88 88 88 88 88 88 88 88 88 88 88 88 87 87 87 87 86 86 86 85 85 86 86 86 85 84 84 84 84 85 84 83 82 83 82 82 82 82 82 81 81 80 80 80 80 80 80 80 80 80 79 79 78 78 78 77 77 76 76 76 75 75 75 74 74 74 73 72 71 70 69 69 68 67 66 67 67 67 68 70 72 75 77 78 80 83 83 83 82 81 81 81 81 81 82 83 84 85 85 86 85 85 85 85 85 85 84 84 84 84 84 84 84 84 84 84 84 84 84 84 84 84 83 82 81 80 78 77 76 75 75 74 74 73 73 72 72 71 70 70
83 83 83 83 83 83 83 83 83 83 83 83 84 84 84 84 84 84 84 84 84 84 84 84 84 84 84 84 84 84 84 84 84 85 85 85 85 85 85 85 85 85 85 85 85 85 85 85 85 85 85 85 85 85 84 84 84 84 84 84 84 84 84 84 84 84 85 85 85 85 85 86 86 86 86 87 87 87 87 87 87 87 88 88 88 88 88 88 88 88 88 88 88 88 88 88 88 88 88 88 88 88 88 88 88 88 88 88 88 88 88 88 88 88 88 88 87 87 87 87 87 87 87 87 87 87 87 87 87 87 87 87 87 87 87 87 88 88 88 88 87 87 87 87 87 87 87 87 87 87 87 87 88 88 88 88 87 87 87 87 87 87 87 87 87 87 87 87 87 87 87 87 87 87 87 87 87 87 87 87 87 87 87 87 87 87 87 87 87 87 87 87 87 87 87 87 87 87 87 87 87 87 87 87 87 87 87 87 87 87 86 83 78 75 73 72 72 72 72 72 72 72 72 72 72 72 72 72 72 72 72 75 79 83 87 89 90 91 91 91 89 89 89 89 89 89 88 88 88 89 91 90 89 89 89 89 88 88 88 90 93 94 94 94 94 93 92 92 91 91 90 89 89 90 91 91 90 90 90 90 90 90 90 90 90 90 90 90 90 90 91 91 91 91 91 91 91 91 91 91 91 91 91 91 91 91 91 91 91 91 91 91 91 91 91 91 91 91 91 91 91 91 91 91 91 91 92 91 91 91 91 91 91 91 91 91 91 91 91 91 91 91 90 90 90 90 90 90 90 90 91 91 91 91 91 91 91 91 91 91 91 91 91 91 91 91 91 91 91 91 90 90 90 90 90 90 90 90 90 90 90 90 90 90 90 90 90 90 90 90 90 90 90 90 90 90 90 90 89 89 89 89 89 89 90 90 90 90 90 90 90 90 90 90 90 90 91 90 90 90 89 89 89 89 89 89 89 89 89 89 89 89 89 89 88 88 89 89 89 89 89 89 89 89 89 89 89 89 88 88 89 89 88 88 88 88 88 88 88 88 88 88 88 88 88 88 88 88 88 88 88 88 88 88 88 87 87 87 87 86 86 87 87 87 86 86 85 85 85 85 86 85 84 83 84 83 83 83 83 83 83 82 82 82 82 82 81 81 81 81 81 81 80 80 79 79 79 78 78 77 77 77 76 76 75 75 74 74 73 72 71 70 70 69 67 67 66 66 66 67 68 70 72 74 76 78 81 81 80 80 79 79 79 80 80 81 83 84 85 85 85 85 85 85 85 85 84 84 84 84 84 84 84 84 84 84 84 84 84 84 84 84 83 82 82 81 79 78 77 77 76 76 76 75 75 75 74 73 72 71 70
83 84 83 83 84 83 83 83 83 84 84 84 84 84 84 84 84 84 84 84 84 84 84 84 84 84 84 84 84 85 85 85 85 85 85 85 85 85 85 85 84 84 84 84 84 84 84 84 84 84 84 85 85 85 84 84 84 84 84 84 84 84 84 84 84 84 85 85 85 85 85 85 86 86 86 87 87 87 87 87 87 87 88 88 88 88 88 88 88 88 88 88 88 88 88 88 88 88 88 88 88 88 88 88 88 88 88 88 88 88 88 88 88 88 88 88 88 88 87 87 87 87 87 87 87 87 87 87 87 87 87 87 87 87 87 87 87 88 88 88 87 87 87 87 87 87 87 87 87 87 87 87 88 88 88 88 87 87 87 87 87 87 87 87 87 87 87 87 87 87 87 87 87 87 87 87 87 87 87 87 87 87 87 87 87 87 87 87 87 87 87 87 87 87 87 87 87 87 87 87 87 87 87 87 87 87 86 86 86 86 86 83 77 74 72 72 72 72 72 72 72 72 72 72 72 72 72 72 72 72 73 77 81 85 88 90 92 92 90 89 89 89 89 89 89 89 89 89 89 89 89 89 88 89 91 90 89 89 89 89 90 90 90 90 90 90 90 90 90 89 89 89 89 90 91 91 90 90 90 90 90 90 90 90 90 90 90 90 90 91 91 91 91 91 91 91 91 91 91 91 91 91 91 91 91 91 91 91 91 91 91 91 91 91 91 91 91 91 91 91 91 91 91 91 91 91 92 92 91 91 91 91 91 91 91 91 91 91 91 91 91 91 90 90 90 90 91 91 90 90 91 91 91 91 91 91 91 91 91 91 91 91 91 91 91 91 91 91 91 91 91 91 91 91 91 90 90 90 90 90 90 90 90 90 90 90 90 90 90 90 90 90 90 90 90 90 90 89 89 89 89 89 89 89 90 90 90 90 90 90 90 90 90 90 90 90 90 90 90 90 89 89 89 89 89 89 89 89 89 89 89 89 89 89 89 89 89 89 89 89 88 88 89 89 89 89 89 89 89 89 89 89 89 89 88 88 88 88 88 88 88 88 88 88 88 88 88 88 88 88 88 88 88 88 88 88 88 87 87 87 87 88 88 88 87 86 86 86 86 86 86 85 85 84 84 84 84 84 84 84 84 84 83 83 83 83 83 83 82 82 82 81 81 81 80 80 80 80 79 79 78 78 77 77 76 76 75 74 74 73 72 71 70 69 68 67 67 66 66 66 67 68 70 72 73 76 78 79 78 77 76 76 77 78 80 82 83 84 85 85 85 85 85 85 85 84 84 84 84 84 83 83 84 84 84 84 84 84 84 84 84 83 82 81 81 80 79 79 78 78 78 77 77 77 77 77 76 75 74 72 70
84 84 84 84 84 84 83 83 84 84 84 84 84 84 84 84 84 84 84 84 84 84 84 84 84 84 84 84 84 85 85 85 85 85 85 85 84 85 85 84 84 84 84 84 84 84 84 84 84 84 84 85 85 85 84 84 85 85 84 84 84 84 84 84 84 84 85 85 85 85 85 85 86 86 86 86 87 87 87 87 87 87 88 88 88 88 88 88 88 88 88 88 88 88 88 88 88 88 88 88 88 88 88 88 88 88 88 88 88 88 88 88 88 88 88 88 88 88 88 87 87 87 87 87 87 87 87 87 87 87 87 87 87 87 87 87 87 88 88 87 87 87 87 87 87 87 87 87 87 87 87 87 87 87 88 87 87 87 87 87 87 87 87 87 87 87 87 87 87 87 87 87 87 87 87 87 87 87 87 87 87 87 87 87 87 87 87 87 87 87 87 87 87 87 87 87 87 87 87 87 87 87 87 87 87 87 86 86 86 86 85 82 76 73 72 72 72 72 72 72 72 72 72 72 72 72 72 72 72 73 74 78 84 87 89 91 93 92 90 89 89 89 89 89 89 89 89 89 89 89 89 89 88 89 90 90 89 89 89 89 89 89 89 89 89 89 89 89 89 89 89 89 90 90 90 90 90 90 90 90 90 90 90 90 90 90 90 90 91 91 91 91 91 91 91 91 91 91 91 91 91 91 91 91 91 91 91 91 91 91 91 91 91 91 91 91 91 91 91 91 91 91 91 91 91 91 91 91 91 91 91 91 91 91 91 91 91 91 91 91 91 91 90 90 90 90 91 91 90 90 91 91 91 91 91 91 91 91 91 91 91 91 91 91 91 91 91 91 91 90 90 91 91 91 91 90 90 90 90 90 90 90 90 90 90 90 90 90 90 90 90 90 90 90 90 90 89 89 89 89 89 89 89 89 89 90 90 90 90 90 90 90 90 90 90 90 90 90 90 90 89 89 89 89 89 89 89 89 89 89 89 89 89 89 89 89 89 89 89 89 89 89 89 89 89 89 89 89 89 89 89 89 89 89 89 88 88 88 88 88 88 88 88 88 88 89 89 89 88 89 89 89 88 88 88 88 88 88 88 88 88 88 88 88 87 87 87 86 86 86 86 85 85 85 85 85 85 84 85 85 85 85 85 84 84 84 84 83 83 82 82 82 82 82 81 81 81 81 81 80 80 79 78 78 77 76 76 75 74 73 72 72 71 70 68 67 67 66 66 66 66 67 68 70 71 73 76 76 76 75 74 74 76 78 80 82 83 84 84 84 84 84 84 84 84 84 84 84 83 83 83 83 83 84 84 84 84 84 84 84 84 83 82 82 81 80 80 80 79 79 79 79 79 79 79 78 78 76 75 73 70
84 84 84 84 84 84 84 84 84 84 84 84 84 84 84 84 84 84 84 84 84 84 84 84 84 84 84 84 85 85 85 85 85 85 84 84 84 84 84 84 84 84 84 84 84 84 84 84 84 85 85 85 85 85 84 84 85 85 85 84 84 84 84 84 84 84 85 85 85 85 85 85 85 86 86 86 87 87 87 87 87 88 88 88 88 88 88 88 88 88 88 88 88 88 88 88 88 88 88 88 88 88 88 88 88 88 88 88 88 88 88 88 88 88 88 88 88 88 88 87 87 87 88 88 88 87 87 87 87 87 87 87 87 87 87 87 87 87 87 87 87 87 87 87 87 87 87 87 87 87 87 87 87 87 87 87 87 87 87 87 87 87 87 87 87 87 87 87 87 87 87 87 87 87 87 87 87 87 87 87 87 87 87 87 87 87 87 87 87 87 87 87 87 87 87 87 87 87 87 87 87 87 87 87 87 87 86 86 86 85 84 80 76 74 73 72 72 72 72 72 72 72 72 72 72 72 72 72 73 74 75 79 85 88 89 91 93 92 90 89 89 89 89 89 89 89 89 89 89 89 89 89 89 89 89 89 89 89 91 90 89 89 89 89 89 89 89 89 89 89 89 90 91 91 90 90 90 90 90 90 90 90 90 90 90 90 90 91 91 91 91 91 91 91 91 91 91 91 91 91 91 91 91 91 91 91 91 91 91 91 91 91 91 91 91 91 91 91 91 91 91 91 91 91 91 91 91 91 91 91 91 91 91 91 91 91 91 91 91 91 91 90 90 90 90 90 90 91 91 90 90 90 91 91 91 91 90 90 91 91 91 91 91 91 91 91 91 91 91 90 90 90 91 91 90 90 90 90 90 90 90 90 90 90 90 90 90 90 90 90 90 90 90 90 89 89 89 89 89 89 89 89 89 89 89 90 90 90 90 90 90 90 90 90 90 90 90 90 90 90 89 89 89 89 89 89 89 89 89 89 89 89 89 89 89 89 89 89 89 89 89 89 89 89 89 89 89 89 89 89 89 89 89 89 88 88 89 89 89 89 89 89 89 89 89 89 89 89 89 89 89 89 89 88 88 88 88 88 88 88 88 88 88 88 87 87 87 86 86 86 86 86 85 85 85 85 85 85 85 85 85 85 85 85 85 84 83 83 83 82 82 82 83 83 82 82 82 82 82 81 81 80 79 79 78 77 76 75 74 74 73 72 71 70 69 68 67 66 66 65 65 66 67 68 70 71 73 74 74 73 72 73 75 78 80 81 82 82 82 82 82 82 83 83 83 83 83 83 83 82 82 82 83 83 84 84 84 84 84 84 83 83 83 82 82 81 81 81 81 81 81 81 81 80 80 79 78 77 75 73 71
84 84 84 84 84 84 84 84 84 84 84 84 84 84 84 84 84 84 84 84 84 84 84 84 84 84 84 84 84 84 84 84 84 84 84 84 84 84 84 84 84 84 84 84 84 84 84 84 84 85 85 85 85 84 84 84 85 85 85 85 84 84 84 84 84 84 85 85 85 85 85 85 85 85 86 86 86 87 87 87 87 88 88 88 88 88 88 88 88 88 88 88 88 88 88 88 88 88 88 88 88 88 88 88 88 88 88 88 88 88 88 88 88 88 88 88 88 88 88 87 87 87 88 88 88 88 87 87 87 87 87 87 87 87 87 87 87 87 87 87 87 87 87 87 87 87 87 87 87 87 87 87 87 87 87 87 87 87 87 87 87 87 87 87 87 87 87 87 87 87 87 87 87 87 87 87 87 87 87 87 87 87 87 87 87 87 87 87 87 87 87 87 87 87 87 87 87 87 87 87 87 87 87 87 88 87 87 86 86 85 82 79 75 74 73 72 72 72 72 72 72 72 72 73 73 73 73 73 73 75 76 81 86 89 89 91 92 92 90 89 89 89 89 89 89 89 89 89 89 89 89 89 89 89 89 89 89 89 90 90 89 89 89 89 89 89 89 89 89 89 89 90 91 91 90 90 90 90 90 90 90 90 90 90 90 90 90 91 91 91 91 91 91 91 91 91 91 91 91 91 91 91 91 91 91 91 91 91 91 91 91 91 91 91 91 91 91 91 91 91 90 90 90 90 90 91 91 91 91 91 91 91 91 91 91 91 91 91 91 91 91 91 90 90 90 90 91 91 91 91 91 91 91 91 91 91 91 90 91 91 91 91 91 91 91 91 91 91 90 90 90 90 90 90 90 90 90 90 90 90 90 90 90 90 90 90 90 90 90 90 90 90 90 89 89 89 89 89 89 89 89 89 89 89 89 89 90 90 90 90 90 90 90 90 90 90 90 90 90 90 89 89 89 89 89 89 89 89 89 89 89 89 89 89 89 89 89 89 89 89 89 89 89 89 89 89 89 89 89 89 89 89 89 89 89 89 89 89 89 89 89 89 89 89 89 89 89 89 89 89 89 89 89 88 88 88 88 88 88 88 88 88 88 88 87 87 87 87 86 86 86 86 86 86 86 86 86 86 86 86 85 85 85 85 85 84 83 83 83 83 83 83 83 83 83 83 83 83 83 82 82 81 80 79 78 77 76 75 75 74 73 72 71 70 68 67 67 66 65 65 65 65 66 67 68 69 71 72 72 71 71 72 75 77 79 80 80 80 80 80 80 80 81 81 82 82 82 82 81 81 81 81 82 83 83 83 84 84 84 84 83 83 84 83 83 82 82 82 82 82 83 82 82 82 81 80 79 77 75 73 71
84 84 84 84 84 84 84 84 84 84 84 84 84 84 84 84 84 84 84 84 84 84 84 84 84 84 84 84 84 84 84 84 84 84 84 84 84 84 84 84 84 84 84 84 84 84 84 84 84 84 84 84 84 84 84 84 84 84 85 85 85 84 84 84 84 84 85 85 85 85 85 85 85 85 86 86 86 87 87 87 87 88 88 88 88 88 88 88 88 88 88 88 88 88 88 88 88 88 88 88 88 88 88 88 88 88 88 88 88 88 88 88 88 88 88 88 88 88 88 88 87 87 87 88 88 88 88 87 87 87 87 87 87 87 87 87 87 87 88 87 87 87 87 87 87 87 87 87 87 87 87 87 87 87 87 87 87 87 87 87 87 87 87 87 87 87 87 87 87 87 87 87 87 87 87 87 87 87 87 87 87 87 87 87 87 87 87 87 87 87 87 87 87 87 87 87 87 87 87 87 87 87 87 87 89 88 87 86 86 84 82 78 75 74 73 73 73 73 73 73 72 72 72 73 73 73 74 74 74 75 78 82 87 89 90 91 92 91 90 89 89 89 89 89 89 89 89 89 89 89 89 89 89 89 89 89 89 89 89 89 89 89 90 90 90 90 89 89 89 89 89 90 91 90 90 90 90 90 90 90 90 90 90 90 90 90 90 91 91 91 91 91 91 91 91 91 91 91 91 91 91 91 91 91 91 91 91 91 91 91 91 91 91 91 91 91 91 91 90 90 90 90 90 90 90 91 91 91 91 91 91 91 91 91 91 91 91 91 91 91 91 91 91 91 91 91 91 91 91 91 91 91 91 91 91 91 91 91 91 91 91 90 90 90 90 90 90 90 90 90 90 90 90 90 90 90 90 90 90 90 90 90 90 90 90 90 90 90 90 90 90 89 89 89 89 89 89 89 89 89 88 88 88 88 89 89 89 90 90 90 90 90 90 90 90 90 90 90 90 90 89 89 89 89 89 89 89 89 89 89 89 89 89 89 89 89 89 89 89 89 89 89 89 89 89 89 89 89 89 89 89 89 89 89 89 89 89 89 89 89 89 89 89 89 89 89 89 89 89 89 89 89 88 88 88 88 88 88 88 88 88 88 88 87 87 87 87 87 87 87 86 86 86 86 86 86 86 86 86 86 85 85 85 85 85 84 84 83 83 83 83 83 84 84 84 84 84 84 83 83 82 82 81 80 79 78 77 76 75 74 73 72 71 69 68 67 66 66 65 65 65 65 65 66 67 68 69 70 70 70 70 72 75 76 77 78 77 77 77 77 78 78 78 79 79 80 80 80 79 79 79 80 81 82 82 83 84 84 84 84 85 85 84 84 84 84 84 84 84 84 84 84 83 82 81 80 78 77 75 73 72
84 84 84 84 84 84 84 84 84 84 84 84 84 84 84 84 84 84 84 84 84 84 84 84 84 84 84 84 84 84 84 84 84 84 84 84 84 84 84 84 84 84 84 84 84 84 84 84 84 84 84 84 84 84 84 84 85 85 85 85 85 85 85 84 84 84 85 85 85 85 85 85 85 85 85 86 86 86 87 87 87 87 88 88 88 88 88 88 88 88 88 88 88 88 88 88 88 88 88 88 88 88 88 88 88 88 88 88 88 88 88 88 88 88 88 88 88 88 87 87 87 87 87 87 88 88 87 87 87 87 87 87 88 87 87 87 87 87 88 88 87 87 87 87 87 87 87 87 87 87 87 87 87 87 87 87 87 87 87 87 87 87 87 87 87 87 87 87 87 87 87 87 87 87 87 87 87 87 87 87 87 87 87 87 87 87 87 87 87 87 87 87 87 87 87 87 87 87 87 87 87 87 87 88 89 89 87 86 86 84 81 79 77 75 75 75 75 75 75 75 74 74 74 75 75 75 75 75 76 78 81 84 88 90 91 91 91 91 90 89 89 89 89 89 89 89 89 89 89 89 89 89 89 89 89 89 89 89 89 89 89 89 90 90 90 90 89 89 90 89 89 89 90 90 89 89 90 90 90 90 90 90 90 90 90 90 90 90 91 91 91 91 91 91 91 91 91 91 91 91 91 91 91 91 91 91 91 91 91 91 91 91 91 91 91 91 91 91 91 90 90 90 90 90 91 91 91 91 91 91 91 91 91 91 91 91 91 91 91 91 91 91 91 91 91 91 91 91 91 91 91 91 91 91 91 91 91 91 91 91 90 90 90 90 90 90 90 90 90 90 90 90 90 90 90 90 90 90 90 90 90 90 90 90 90 90 90 90 90 90 89 89 89 89 89 89 89 89 89 89 88 88 88 88 89 89 89 89 90 90 90 90 90 90 90 90 90 90 90 90 90 89 89 89 89 89 89 89 89 89 89 89 89 89 89 89 89 89 89 89 89 89 89 89 89 89 89 89 89 89 89 89 89 89 89 89 89 89 89 89 89 89 89 89 89 89 89 89 89 89 89 88 88 88 88 88 89 89 88 88 88 88 88 88 87 87 87 87 87 87 87 87 87 87 87 86 86 86 86 86 85 85 85 85 85 84 84 84 83 83 84 84 84 84 84 84 84 84 84 83 83 82 81 80 79 78 77 76 74 73 72 71 70 69 67 66 66 65 65 65 64 64 65 65 65 66 67 68 68 68 69 70 73 74 75 75 74 74 74 74 75 75 75 76 77 77 77 77 76 77 78 79 79 80 81 82 83 84 84 85 85 85 85 85 85 85 85 85 85 85 85 85 84 83 82 80 79 77 75 74 72
84 84 84 84 84 84 84 84 84 84 84 84 84 84 84 84 84 84 84 84 84 84 84 84 84 84 84 84 84 84 84 84 84 84 84 84 84 84 84 84 84 84 84 85 85 84 84 84 84 85 85 85 85 85 85 85 85 85 85 85 85 85 85 85 84 85 85 85 85 85 85 85 85 85 85 86 86 86 87 87 87 87 87 88 88 88 88 88 88 88 88 88 88 88 88 88 88 88 88 88 88 88 88 88 88 88 88 88 88 88 88 88 88 88 88 88 88 87 87 87 87 87 87 88 88 88 87 87 88 88 88 88 88 88 87 87 87 88 88 88 87 87 87 87 87 87 87 87 87 87 87 87 87 87 87 87 87 87 87 87 87 87 87 88 88 88 88 88 88 88 88 88 87 87 87 87 87 87 87 87 87 87 87 87 87 87 87 87 87 87 87 87 87 87 87 87 87 87 87 87 86 86 86 88 89 89 87 86 86 85 82 80 79 78 77 77 79 79 78 78 78 78 78 78 78 78 78 78 78 81 85 87 89 91 92 92 90 90 89 89 89 89 89 89 89 89 89 89 89 89 89 89 89 89 89 89 89 89 88 89 89 89 89 89 89 89 89 90 91 90 90 89 89 89 89 89 90 90 90 90 90 90 90 90 90 90 90 90 90 91 91 91 91 91 91 91 91 91 91 91 91 91 91 91 91 91 91 91 91 91 91 91 91 91 91 91 91 91 91 91 90 90 90 91 91 91 91 91 91 91 91 91 91 91 90 90 91 91 91 91 91 91 91 91 91 91 91 91 91 91 91 91 91 91 90 91 91 91 91 91 90 90 90 90 90 90 90 90 90 90 90 90 91 90 90 90 90 90 90 90 90 90 90 90 90 90 90 90 90 89 89 89 89 89 89 89 89 89 89 88 88 88 88 89 89 89 89 89 90 90 90 90 90 90 90 90 90 90 90 90 90 90 90 90 89 89 89 89 89 89 89 89 89 89 89 89 89 89 89 89 89 89 89 89 89 89 89 89 89 89 89 89 89 89 89 89 89 89 89 89 89 89 89 89 89 89 89 89 88 88 88 88 88 89 89 89 89 89 89 88 88 88 88 88 88 88 88 87 88 88 88 88 88 87 87 87 86 86 86 86 85 85 85 85 84 84 84 84 84 84 84 84 84 84 85 85 85 84 84 83 83 82 81 81 80 78 77 75 74 72 71 69 68 67 66 66 65 65 65 64 64 64 64 64 65 65 65 65 66 67 67 68 70 71 71 71 71 71 71 71 71 72 72 73 73 74 74 74 73 74 76 77 77 78 79 81 83 84 85 85 85 86 86 86 86 86 85 85 86 86 86 85 85 84 83 81 80 78 76 75 73
84 84 84 84 84 84 84 84 84 84 84 84 84 84 84 84 84 84 84 84 84 84 84 84 84 84 84 84 84 84 84 84 84 84 84 84 84 84 84 85 85 85 85 85 85 85 85 85 85 85 85 85 85 85 85 85 85 85 85 85 85 85 85 85 85 85 85 85 85 85 85 85 85 85 85 86 86 86 87 87 87 87 87 88 88 88 88 88 88 88 88 88 88 88 88 88 88 88 88 88 88 88 88 88 88 88 88 88 88 88 88 88 88 88 88 88 88 87 87 87 87 87 87 88 88 88 87 87 88 88 88 88 88 88 88 88 88 88 88 88 88 87 87 87 87 87 87 87 88 87 87 87 87 87 87 87 87 87 87 87 87 87 88 88 88 88 88 88 88 88 88 88 87 87 87 87 87 87 87 87 87 87 87 87 87 87 87 87 87 87 87 86 86 87 87 87 86 86 86 86 86 86 86 87 89 88 87 86 86 85 83 82 82 81 80 81 82 82 82 82 81 81 81 82 82 82 82 82 82 84 88 89 89 91 93 92 90 89 89 89 89 89 89 89 89 89 89 89 89 89 89 89 89 89 89 89 89 89 88 89 89 89 89 89 89 89 89 90 90 90 90 89 89 89 89 89 90 90 90 90 90 90 90 90 90 90 90 90 90 90 91 91 91 91 91 91 91 91 91 91 91 91 91 91 91 91 91 91 91 91 91 91 91 91 91 91 91 91 91 91 90 90 90 91 91 91 91 91 91 91 91 91 91 91 90 90 90 91 91 91 91 91 91 91 91 91 90 90 91 91 91 91 91 91 90 90 91 91 91 91 90 90 90 90 90 90 90 90 90 90 90 90 90 90 90 90 90 90 90 90 90 90 90 90 90 90 90 90 89 89 89 89 89 89 89 89 89 89 89 89 89 89 89 89 89 89 89 89 90 90 90 90 90 90 90 90 90 90 90 90 90 90 90 90 90 89 89 89 89 89 89 89 89 89 89 89 89 89 89 89 89 89 89 89 89 89 89 89 89 89 89 89 89 89 89 90 90 90 90 90 89 89 89 89 89 89 89 89 88 88 88 89 89 89 89 89 89 89 89 89 88 88 88 88 88 88 88 88 88 88 88 88 88 88 87 87 87 86 86 86 85 85 85 85 84 84 84 84 84 84 84 84 84 84 85 85 84 84 83 83 82 82 81 80 79 77 76 74 72 71 69 68 67 66 65 65 64 64 64 64 64 64 64 64 64 64 64 64 65 65 65 66 67 68 68 68 68 68 68 68 68 69 69 69 70 70 71 70 70 71 74 74 74 75 77 79 81 82 83 84 84 85 85 86 86 86 85 85 85 86 85 85 85 84 83 81 80 78 76 75 73
84 84 84 84 84 84 84 84 84 84 84 84 84 84 84 84 84 84 84 84 84 84 84 84 84 84 84 84 84 84 84 84 84 84 84 84 84 84 85 85 85 85 85 85 85 85 85 85 85 85 85 85 85 85 85 85 85 85 85 85 85 85 85 85 85 85 85 85 85 85 85 85 85 85 85 86 86 86 86 87 87 87 88 88 88 88 88 88 88 88 88 88 88 88 88 88 88 88 88 88 88 88 88 88 88 88 88 88 88 88 88 88 88 88 88 88 88 88 87 87 87 87 87 88 88 88 88 88 88 88 88 88 88 88 88 88 88 88 88 88 88 88 87 87 87 88 88 88 88 88 88 87 87 87 87 87 88 88 88 88 88 88 88 88 88 88 88 88 88 88 88 88 87 87 87 87 87 87 87 87 87 87 87 87 87 87 87 87 87 87 87 86 87 87 87 86 86 86 86 86 86 86 86 87 88 87 87 87 87 86 86 85 85 85 85 85 85 85 85 85 85 86 86 86 86 87 87 87 87 88 89 89 90 91 93 92 90 89 89 89 89 89 89 89 89 89 89 89 89 89 89 89 89 89 89 89 89 89 89 89 89 89 89 89 89 89 89 89 89 89 89 89 89 89 89 89 90 90 90 90 90 90 90 90 90 90 90 90 90 90 90 91 91 91 91 91 91 91 91 91 91 91 91 91 91 91 91 91 91 91 91 91 91 91 91 91 91 91 91 91 90 90 90 91 91 91 91 91 91 90 90 90 91 91 90 91 91 91 91 91 91 91 91 91 90 90 90 90 91 91 91 91 91 90 90 90 90 91 91 91 90 90 90 90 91 91 90 90 90 90 90 90 90 90 90 90 90 90 90 90 90 90 90 90 89 90 90 89 89 89 89 89 89 89 89 89 89 89 89 89 89 89 89 89 88 88 88 89 89 90 90 90 90 90 90 90 90 90 90 90 90 90 90 90 89 89 89 89 89 89 89 89 89 89 89 89 89 89 89 89 89 89 89 89 89 89 89 89 89 89 89 89 89 89 89 90 90 90 90 90 90 90 89 89 89 89 89 89 89 89 89 89 90 90 89 89 89 89 89 89 89 89 89 89 89 89 88 88 88 88 88 88 88 88 87 87 87 87 86 86 85 85 85 84 84 84 84 84 83 84 84 84 84 84 84 84 84 84 83 82 82 81 80 79 77 76 74 72 70 69 68 66 65 64 64 64 63 63 64 64 64 64 64 64 64 64 64 64 64 64 64 64 64 64 65 66 65 65 65 65 65 66 66 66 67 67 67 67 67 69 71 72 72 73 75 77 79 80 81 82 83 83 84 84 85 85 84 84 84 85 85 85 85 84 82 80 79 77 75 74 73
84 84 84 84 84 84 84 84 84 84 84 84 84 84 84 84 84 84 84 84 84 84 84 84 84 84 84 84 84 84 84 84 84 84 84 84 85 85 85 85 85 85 85 85 85 85 85 85 85 85 85 85 85 85 86 86 86 86 86 86 86 86 86 85 85 85 85 85 85 85 85 85 85 86 86 86 86 86 86 87 87 87 88 88 88 88 88 88 88 88 88 88 88 88 88 88 88 88 88 88 88 88 88 88 88 88 88 88 88 88 88 88 88 88 88 88 88 87 87 87 87 87 87 88 88 88 88 88 88 88 88 88 88 88 88 88 88 88 88 88 88 88 87 87 87 88 88 88 88 88 88 87 87 87 87 88 88 88 88 88 88 88 88 88 88 88 88 88 88 88 88 88 87 87 88 87 87 87 87 87 87 87 87 87 87 87 87 87 87 87 86 86 86 86 86 86 86 86 86 86 86 86 86 87 87 87 87 87 87 87 87 87 87 88 88 88 88 88 88 88 89 89 89 89 89 90 90 90 90 90 91 91 91 91 92 91 90 89 89 89 89 89 89 89 89 89 89 89 89 89 89 89 89 89 89 89 89 89 89 89 89 89 89 89 89 89 89 89 89 89 89 89 89 89 89 89 90 90 90 90 90 90 90 90 91 91 91 90 90 90 90 90 90 91 91 91 91 91 91 91 91 91 91 91 91 91 91 91 91 91 91 91 91 91 91 91 91 91 91 90 90 90 90 91 91 91 91 91 90 90 90 90 90 91 91 91 91 91 91 91 91 91 91 91 90 90 90 91 91 91 90 90 90 90 90 90 91 91 91 91 90 90 91 91 91 91 91 90 91 90 90 90 90 90 90 90 90 90 90 90 90 90 90 90 89 89 90 90 89 89 89 89 89 89 89 89 89 89 89 89 89 89 89 89 88 88 88 88 89 89 90 90 90 90 90 90 90 90 90 90 90 90 90 89 89 89 89 89 89 89 89 89 89 89 89 89 89 89 89 89 89 89 89 89 89 89 89 89 89 89 89 89 89 89 89 90 90 90 90 90 90 90 89 89 89 89 89 89 89 89 89 89 90 90 89 89 89 89 89 89 89 89 89 89 89 89 89 88 88 88 88 88 88 88 87 87 87 87 86 86 85 85 84 84 84 84 84 83 83 83 83 83 84 84 84 83 83 82 82 81 80 78 77 76 75 73 71 70 68 67 66 65 64 63 63 63 63 63 63 63 63 63 64 63 63 63 63 63 63 63 63 63 62 63 64 64 64 64 63 63 63 63 63 64 64 65 65 65 65 67 68 69 69 71 73 74 76 77 78 79 80 80 81 82 82 82 82 82 83 83 83 83 83 82 81 79 78 76 75 74 72
84 84 84 84 84 84 84 85 84 84 85 84 84 84 84 84 84 84 84 84 84 84 84 84 84 84 84 84 85 85 85 85 85 85 85 85 85 85 85 85 85 85 85 85 85 85 85 85 86 86 85 85 85 86 86 86 86 86 86 86 86 86 86 86 85 85 85 85 85 85 85 86 86 86 86 86 86 86 86 87 87 87 88 88 88 88 88 88 88 88 88 88 88 88 88 88 88 88 88 88 88 88 88 88 88 88 88 88 88 88 88 88 88 88 88 88 88 87 87 87 87 87 87 88 88 88 88 88 88 88 88 88 88 88 88 88 88 88 88 88 88 88 87 87 87 87 88 88 88 88 88 87 87 87 87 88 88 88 88 88 88 88 88 88 88 88 88 88 88 88 88 88 88 88 88 88 87 87 87 87 87 87 87 87 87 87 87 87 87 86 86 86 86 86 86 86 86 86 86 86 86 86 86 87 87 87 87 87 88 88 88 89 89 89 90 90 90 90 91 91 91 91 91 91 92 92 92 92 92 92 92 92 93 92 91 90 90 89 89 89 89 89 89 89 89 89 89 89 89 89 89 89 89 89 89 89 89 89 89 89 89 89 89 89 89 89 89 89 89 89 89 89 89 89 89 89 90 90 90 90 90 90 90 90 91 91 91 91 90 90 90 90 90 90 91 91 91 91 91 91 91 91 90 90 90 91 91 91 91 91 91 91 91 90 91 91 91 91 90 90 90 90 90 91 91 91 91 91 90 90 90 90 90 91 91 91 91 91 91 91 90 91 91 91 91 91 91 91 91 91 90 90 90 90 90 90 91 91 91 91 91 91 91 91 91 91 91 91 91 90 90 90 90 90 90 90 90 90 90 90 90 90 90 90 89 90 90 90 89 89 89 89 89 89 89 89 89 89 89 89 89 89 89 88 88 88 88 88 89 89 89 90 90 90 90 90 90 90 90 90 90 90 90 89 89 89 89 89 88 88 89 89 89 89 89 89 89 89 89 89 89 89 89 89 88 88 88 89 89 89 89 89 89 89 89 90 90 90 90 90 90 89 89 89 89 89 90 90 90 90 90 90 90 89 89 89 89 89 89 89 89 89 89 89 89 89 89 89 88 88 88 88 88 88 87 87 87 86 86 86 85 85 84 84 84 83 83 83 83 83 83 83 83 83 82 82 81 80 79 78 77 75 74 72 71 70 68 67 66 65 64 64 63 63 63 63 63 63 63 63 63 63 63 63 63 63 63 63 63 63 63 62 62 62 62 62 62 62 62 62 62 62 62 62 62 62 63 63 64 64 65 66 67 68 70 71 72 73 74 75 76 77 77 78 79 80 80 80 80 80 81 80 80 79 79 78 77 76 75 74 72
84 84 84 84 84 84 85 85 85 85 85 85 84 84 84 84 84 84 84 84 84 84 84 84 84 84 85 85 85 85 85 85 85 85 85 85 85 85 85 85 85 85 85 85 85 85 85 85 86 86 86 86 86 86 86 86 86 86 86 86 86 86 86 86 85 85 85 85 85 85 85 86 86 86 86 86 86 86 87 87 87 87 88 88 88 88 88 88 88 88 88 88 88 88 88 88 88 88 88 88 88 88 88 88 88 88 88 88 88 88 88 88 88 88 88 88 87 87 87 87 87 87 87 88 88 88 88 88 88 88 88 88 88 88 88 88 88 88 88 88 88 88 88 88 88 88 88 88 88 88 88 88 87 87 88 88 88 88 88 88 88 88 88 88 88 88 88 88 88 88 88 88 88 88 88 88 87 87 87 87 87 87 87 87 87 87 87 87 86 86 86 86 86 86 86 86 86 86 86 86 86 86 86 87 87 87 87 87 87 88 88 89 89 89 90 90 90 90 90 91 91 91 91 91 91 91 91 92 92 92 92 92 92 91 90 90 89 89 89 89 89 89 89 89 89 89 89 89 89 89 89 89 89 89 89 89 89 89 89 89 89 89 89 89 89 89 89 89 89 89 89 89 89 89 89 89 89 90 90 90 90 90 90 90 91 91 91 91 90 90 90 90 90 90 90 90 90 90 91 91 91 91 90 90 90 91 91 91 91 91 91 90 90 90 90 90 90 90 90 90 90 90 91 91 91 91 91 90 90 90 90 91 91 91 91 91 91 91 91 90 90 90 91 91 91 91 91 91 90 90 91 91 91 91 91 91 91 91 91 91 91 91 91 91 91 91 91 91 91 90 90 90 90 90 90 90 90 90 90 90 90 90 90 90 89 89 90 90 89 89 89 89 89 89 89 89 89 89 89 89 89 89 89 88 88 88 88 88 88 88 89 89 90 90 90 90 90 90 90 90 90 90 89 89 89 89 89 89 88 88 89 89 89 89 89 89 89 89 89 88 88 88 88 88 88 88 88 88 89 89 89 89 89 89 89 90 90 90 90 89 89 89 89 89 90 90 90 90 90 90 90 90 90 89 89 89 89 89 89 89 89 89 89 89 89 89 89 89 89 88 88 88 88 87 87 87 87 86 86 85 85 84 84 83 83 83 83 82 82 82 82 81 82 81 80 79 78 77 77 75 73 72 71 69 68 67 66 65 64 64 63 63 63 63 63 63 62 63 63 63 63 62 63 63 62 62 63 63 62 62 62 62 62 62 62 62 62 61 61 61 61 61 61 61 61 61 61 62 62 63 63 64 65 66 67 68 69 70 70 71 72 73 74 75 76 77 77 77 78 78 78 78 78 77 77 77 76 75 74 72 70
84 84 85 84 84 84 85 85 85 85 85 85 84 84 84 84 84 84 84 84 84 84 84 84 85 85 85 85 85 85 85 85 85 85 85 85 85 85 85 85 85 85 85 85 85 86 86 86 86 86 86 86 86 86 86 86 86 86 86 86 86 86 86 86 85 85 85 85 85 85 85 86 86 86 86 86 86 86 87 87 87 87 88 88 88 88 88 88 88 88 88 88 88 88 88 88 88 88 88 88 88 88 88 88 88 88 88 88 88 88 88 88 88 88 88 88 87 87 87 87 87 87 87 87 88 88 88 88 88 88 88 88 88 88 88 88 88 88 88 88 88 88 88 88 88 88 88 88 88 88 88 88 88 88 87 88 88 88 88 88 88 88 88 88 88 88 88 88 88 88 88 88 88 88 88 88 88 87 87 87 87 87 87 87 87 87 86 86 86 86 86 86 86 86 86 86 86 86 87 87 87 87 86 87 87 87 87 87 87 87 87 87 87 87 88 88 88 88 88 88 88 89 89 89 89 89 90 90 90 90 90 90 90 90 90 90 89 89 89 89 89 89 89 89 89 89 89 89 89 89 89 89 89 89 89 89 89 89 89 89 89 89 89 89 89 89 89 89 89 89 89 89 89 89 89 89 89 90 90 90 90 90 90 90 91 91 91 90 90 90 90 90 90 90 90 90 90 90 91 91 91 91 91 90 90 90 90 91 91 91 90 90 90 90 90 90 90 90 90 90 90 90 91 91 91 91 91 90 90 90 91 91 91 91 91 91 91 91 90 90 90 91 91 91 91 91 91 90 90 91 91 91 91 91 91 91 91 91 91 91 91 91 91 91 91 91 91 91 91 90 90 90 90 90 90 90 90 90 90 90 90 90 89 89 89 89 89 89 89 89 89 89 89 89 89 89 89 89 89 89 89 89 89 89 88 88 88 88 88 88 88 89 89 90 90 90 90 90 90 90 90 90 89 89 89 89 89 89 89 89 89 88 88 88 89 89 88 88 88 88 88 88 88 88 88 88 88 88 88 89 89 89 89 89 89 89 90 90 90 89 89 90 90 90 90 90 90 90 90 90 90 90 90 90 89 89 89 89 89 89 90 90 90 89 89 90 90 90 89 88 88 87 87 87 87 87 86 86 85 85 84 84 83 83 83 82 82 82 81 81 80 80 80 79 78 76 76 74 73 72 70 69 68 67 66 65 65 64 64 63 63 63 63 63 63 63 62 62 63 62 62 62 62 62 62 62 62 62 62 62 62 62 62 61 61 61 61 61 61 61 61 61 61 61 61 61 61 61 61 61 61 62 63 63 64 65 66 66 67 68 69 70 71 72 73 73 74 74 75 75 75 75 75 76 76 76 75 74 72 70 68
85 85 85 85 84 84 84 85 84 85 85 85 85 84 84 84 84 84 84 84 84 84 84 84 85 85 85 85 85 85 85 85 85 85 85 85 85 85 85 85 85 85 85 85 85 86 86 86 86 86 86 86 86 86 86 86 86 86 86 86 86 86 86 86 86 86 85 85 85 85 85 85 86 86 86 86 86 86 87 87 87 87 88 88 88 88 88 88 88 88 88 88 88 88 88 88 88 88 88 88 88 88 88 88 88 88 88 88 88 88 88 88 88 88 88 88 87 87 87 87 87 87 87 87 88 88 88 88 88 88 88 88 88 88 88 88 88 88 88 88 88 88 88 88 88 88 88 88 88 88 88 88 88 88 88 88 88 88 88 88 88 88 88 88 88 88 88 88 88 88 88 88 88 88 88 88 88 87 87 87 87 87 87 87 87 86 86 86 86 86 86 86 86 86 86 86 87 87 87 87 87 87 87 87 87 87 87 87 87 87 87 87 87 87 87 87 87 87 87 87 88 88 88 88 88 89 89 89 89 89 89 89 90 90 90 90 89 89 89 89 89 89 89 89 89 89 89 89 89 89 89 89 89 89 89 89 89 89 89 89 89 89 89 89 89 89 89 89 89 89 89 89 89 89 89 89 89 90 90 90 90 90 90 90 90 91 91 90 90 90 90 90 90 90 90 90 90 90 91 91 91 91 91 91 90 90 90 90 90 90 90 90 90 90 90 90 90 90 90 90 90 90 91 91 91 91 91 91 90 91 91 91 91 91 91 91 91 90 90 90 91 91 91 91 91 91 90 90 90 91 91 91 91 91 91 91 91 91 91 91 91 91 91 91 91 91 91 91 91 90 90 90 90 90 90 90 90 90 90 90 89 89 89 89 89 89 89 89 89 89 89 89 89 89 89 89 89 89 89 89 89 89 89 89 89 88 88 88 88 88 88 88 89 89 89 90 90 90 90 90 90 89 89 89 89 89 89 89 89 88 88 88 88 88 88 88 88 88 88 88 88 88 88 88 88 88 88 88 88 89 89 89 89 89 89 89 89 89 89 90 90 90 90 90 90 90 90 90 90 90 90 90 90 90 89 89 89 89 89 89 90 90 89 89 89 90 90 90 89 88 88 87 87 87 87 86 86 85 85 84 84 83 82 82 82 81 81 80 80 79 78 77 77 76 75 74 73 71 70 69 68 67 66 65 64 64 64 63 63 63 63 63 63 63 63 63 63 62 62 62 62 62 62 62 62 62 62 62 62 62 61 61 61 61 61 61 61 61 61 61 61 61 61 61 60 60 60 60 60 60 60 61 61 61 62 62 63 64 64 65 66 67 68 69 69 70 71 71 72 72 73 73 73 73 74 73 72 71 69 67 65
85 85 85 85 85 84 84 84 84 85 85 85 85 85 85 85 85 85 85 84 84 84 84 84 84 85 85 85 85 85 85 85 85 85 85 85 85 85 85 85 85 85 85 85 85 86 86 86 86 86 86 86 86 86 86 86 86 86 86 86 86 86 86 86 86 86 85 85 85 85 85 85 86 86 86 86 86 86 87 87 87 87 88 88 88 88 88 88 88 88 88 88 88 88 88 88 88 88 88 88 88 88 88 88 88 88 88 88 88 88 88 88 88 88 88 88 87 87 87 87 87 87 87 87 87 88 88 88 88 88 88 88 88 88 88 88 88 88 88 88 88 88 88 88 88 88 88 88 88 88 88 88 88 88 88 88 88 88 88 88 88 88 88 88 88 88 88 88 88 88 88 88 88 88 88 88 88 87 87 87 87 87 87 87 87 86 86 86 86 86 86 86 86 86 87 87 87 87 87 87 87 87 87 87 87 87 87 87 87 87 87 87 87 87 87 87 87 87 87 87 87 88 88 88 88 89 89 89 89 89 89 89 89 89 90 89 89 89 89 89 89 89 89 89 89 89 89 89 89 89 89 89 89 89 89 89 89 89 89 89 89 89 89 89 89 89 89 89 89 89 89 89 89 89 89 89 89 90 90 90 90 90 90 90 90 90 90 90 90 90 90 90 90 90 90 90 90 91 91 91 91 91 91 91 91 90 90 90 90 90 90 90 90 90 90 90 90 90 90 90 90 90 91 91 91 91 91 91 91 91 91 91 91 91 91 91 90 90 90 91 91 91 91 91 91 91 91 90 91 91 91 91 91 91 91 91 91 91 91 91 91 91 91 91 91 91 91 91 91 90 90 90 90 90 90 90 90 90 90 89 89 89 89 89 89 89 89 89 89 89 89 89 89 89 89 89 89 89 89 89 89 89 89 89 89 89 88 88 88 87 87 88 88 88 89 89 90 90 90 89 89 89 89 89 89 89 89 89 89 88 88 88 88 88 88 88 88 88 88 88 88 88 88 87 87 87 88 88 88 89 89 89 89 89 89 89 89 89 90 90 90 90 90 90 90 90 90 90 90 90 90 90 89 89 89 89 89 89 89 89 89 89 89 89 89 89 89 89 88 88 88 87 87 87 86 86 86 85 84 84 83 82 82 81 81 80 80 79 78 77 76 75 74 73 72 71 70 68 67 67 66 65 65 64 64 64 63 63 63 63 63 63 63 63 63 63 63 62 62 62 62 62 62 62 62 62 62 62 61 61 61 61 61 61 61 61 61 61 61 60 60 60 60 60 60 60 60 60 60 60 60 60 60 60 60 60 61 61 62 62 63 64 65 66 66 66 67 68 69 69 70 70 71 71 70 70 69 68 66 65 63
85 85 85 85 85 85 85 85 85 85 85 85 85 85 85 85 85 85 85 84 84 84 84 84 84 85 85 85 85 85 85 85 85 85 85 85 85 85 86 86 86 86 86 86 86 86 86 86 86 86 86 86 86 86 86 86 86 86 86 86 86 86 86 86 86 86 85 85 85 85 85 85 86 86 86 86 86 86 87 87 87 87 88 88 88 88 88 88 88 88 88 88 88 88 88 88 88 88 88 88 88 88 88 88 88 88 88 88 88 88 88 88 88 88 88 88 88 88 88 87 87 87 87 87 87 88 88 88 88 88 88 88 88 88 88 88 88 88 88 88 88 88 88 88 88 88 88 88 88 88 88 88 88 88 88 88 88 88 88 88 88 88 88 88 88 88 88 88 88 88 88 88 88 88 88 88 88 87 87 87 87 87 87 87 87 87 86 86 86 86 86 86 86 86 87 87 87 87 87 87 87 87 87 87 87 87 87 87 87 87 87 87 87 87 87 87 87 87 87 87 87 88 88 88 88 88 89 89 89 89 89 89 89 89 89 89 89 89 89 89 89 89 89 89 89 89 89 89 89 89 89 89 89 89 89 89 89 89 89 89 89 89 89 89 89 89 89 89 89 89 89 89 89 89 89 89 89 90 90 90 90 90 90 90 90 90 90 90 90 90 90 90 90 90 90 90 90 91 91 91 91 91 91 91 91 90 90 90 90 90 90 90 90 90 90 90 90 90 90 90 90 91 91 91 91 91 91 91 91 91 91 91 91 91 91 91 90 90 91 91 91 91 91 91 91 91 91 91 91 91 91 91 91 91 91 91 91 91 91 91 91 91 91 91 91 91 91 91 90 90 90 90 90 90 90 90 90 90 89 89 89 89 89 89 89 89 89 89 89 89 89 89 89 89 89 89 89 89 89 89 89 89 89 89 89 89 89 88 88 87 87 87 87 88 88 89 89 89 89 89 89 89 89 89 89 89 89 89 88 88 88 88 88 88 88 88 88 88 87 87 87 87 87 87 87 87 87 88 88 88 89 89 89 89 89 89 89 89 90 90 90 90 90 90 90 90 90 90 90 90 90 89 89 89 90 89 89 89 89 89 89 89 89 89 89 89 89 88 88 88 87 87 87 86 86 85 85 84 84 83 82 81 80 80 79 78 78 77 76 75 73 72 71 70 69 68 67 66 66 65 65 64 64 64 64 64 64 64 64 64 64 64 63 63 63 63 63 63 63 63 63 62 62 62 62 62 61 61 61 61 61 61 61 61 61 61 61 61 61 61 60 60 60 60 60 60 60 60 60 60 60 60 59 59 59 59 60 60 60 61 61 62 63 63 63 64 64 65 65 66 67 67 68 67 67 66 66 65 63 62 61
85 85 85 85 85 85 85 85 85 85 85 85 85 85 85 85 85 84 84 84 84 84 84 84 84 85 85 85 85 85 85 85 85 85 85 85 85 85 86 86 86 86 86 86 86 86 86 86 86 86 86 86 86 86 86 86 86 86 86 86 86 86 86 86 86 86 85 85 85 85 85 86 86 86 86 86 86 86 86 87 87 87 87 88 88 88 88 88 88 88 88 88 88 88 88 88 88 88 88 88 88 88 88 88 88 88 88 88 88 88 88 88 88 88 88 88 88 88 88 88 87 87 88 88 87 88 88 88 88 88 88 88 88 88 88 88 88 88 88 88 88 88 88 88 88 88 88 88 88 88 88 88 88 88 88 88 88 88 88 88 88 88 88 88 88 88 88 88 88 88 88 88 88 88 88 88 88 87 87 87 87 87 87 87 87 87 87 86 86 86 86 86 86 87 87 87 87 87 87 87 87 87 87 87 87 87 87 87 87 87 87 87 87 87 87 87 87 87 87 87 87 88 88 88 88 88 89 89 89 89 89 89 89 89 89 89 89 89 89 89 89 89 89 89 89 89 89 89 89 89 89 89 89 89 89 89 89 89 89 89 89 89 89 89 89 89 89 89 89 89 89 89 89 89 89 89 89 90 90 90 90 90 90 90 90 90 90 90 90 90 90 90 91 91 90 90 90 91 91 91 91 91 91 90 90 90 90 90 90 90 90 90 90 90 90 90 90 90 90 90 91 91 91 91 91 90 90 90 90 90 91 91 90 90 91 91 91 91 91 91 91 91 91 91 91 91 91 91 90 90 91 91 91 91 91 91 91 91 91 91 91 91 91 91 91 91 91 90 90 90 90 90 90 90 90 90 90 89 89 89 89 89 89 89 89 89 89 89 89 89 89 89 89 89 89 89 89 89 89 89 89 89 89 89 89 89 89 89 88 88 87 87 87 87 88 88 88 89 89 89 89 89 89 89 89 89 88 88 88 88 88 87 87 87 87 87 87 87 87 87 87 87 87 87 87 87 87 88 88 88 89 89 89 89 89 89 89 89 90 90 90 90 90 90 90 90 90 90 90 89 89 89 90 90 90 89 89 89 89 89 89 89 89 89 89 88 88 88 87 87 87 87 86 86 85 85 84 84 83 82 81 80 78 78 77 77 75 74 73 72 70 69 68 67 67 66 65 65 65 64 64 64 64 64 64 64 64 64 64 64 64 64 64 64 64 65 65 65 65 64 64 63 63 62 62 62 61 61 61 61 61 61 61 61 61 61 61 61 61 61 61 61 61 60 60 60 60 60 59 59 59 59 59 59 59 59 59 59 59 59 59 60 60 60 61 61 62 62 62 63 64 64 64 64 64 63 62 61 60 59 59
85 85 85 85 85 85 85 85 85 85 85 85 85 85 85 85 85 84 84 84 84 84 84 84 84 84 85 85 85 85 85 85 85 85 85 85 85 86 86 86 86 86 86 86 86 86 86 86 86 86 86 86 86 86 86 86 86 86 86 86 86 86 86 86 86 86 85 85 85 85 86 86 86 86 86 86 86 86 86 87 87 87 87 88 88 88 88 88 88 88 88 88 88 88 88 88 88 88 88 88 88 88 88 88 88 88 88 88 88 88 88 88 88 88 88 88 88 88 88 88 88 88 88 88 88 88 88 88 88 88 88 88 88 88 88 88 88 88 88 88 88 88 88 88 88 88 88 88 88 88 88 88 88 88 88 88 88 88 88 88 88 88 88 88 88 88 88 88 88 88 88 88 88 88 88 88 88 87 87 87 87 87 87 87 87 87 87 87 87 87 87 87 87 87 87 87 87 87 87 87 87 87 87 87 87 87 87 87 87 87 87 87 87 87 87 87 87 87 87 87 87 88 88 88 88 88 89 89 89 89 89 89 89 89 89 89 89 89 89 89 89 89 89 89 89 89 89 89 89 89 89 89 89 89 89 89 89 89 89 89 89 89 89 89 88 89 89 89 89 89 89 89 89 89 89 89 89 90 90 90 90 90 90 90 90 90 90 90 90 90 90 90 90 90 90 90 90 90 90 91 91 91 90 90 90 90 90 90 90 90 90 90 90 90 90 90 90 90 90 90 91 91 91 90 90 90 90 90 90 90 90 91 91 91 91 91 91 91 91 91 91 91 91 91 91 91 91 91 91 91 91 91 91 91 91 91 91 91 91 91 91 91 91 91 91 91 91 90 90 90 90 90 90 90 90 90 89 89 89 89 89 89 89 89 89 89 89 89 89 89 89 89 89 89 89 89 89 89 89 89 89 89 89 89 89 89 89 89 88 88 87 87 87 87 87 87 88 88 88 88 88 88 88 88 88 88 88 88 88 88 87 87 87 87 86 86 86 86 87 86 86 86 86 86 86 86 87 87 88 88 88 89 89 89 89 89 89 89 90 90 90 90 90 90 90 90 90 90 90 89 89 89 90 90 89 89 89 89 89 89 89 89 89 89 88 88 88 88 87 87 86 86 86 85 84 84 83 82 81 80 79 78 77 76 75 74 73 72 71 69 68 67 66 65 65 65 65 64 64 64 64 64 64 64 64 65 65 65 65 65 66 66 66 66 67 67 67 67 67 67 67 66 65 64 64 63 62 62 62 62 62 62 62 61 61 61 62 62 62 61 61 61 61 60 60 60 60 59 59 59 59 59 59 59 59 59 59 59 59 59 59 59 59 59 59 60 60 60 60 60 61 61 61 61 61 60 60 59 58 58 57
85 85 85 85 85 85 85 85 85 85 85 85 84 84 85 85 85 85 84 84 84 84 84 84 84 84 84 85 85 85 85 85 86 86 86 86 86 86 86 86 86 86 86 86 86 86 86 86 86 86 86 86 86 86 86 86 86 86 86 86 86 86 86 86 86 86 86 86 86 86 86 86 86 86 86 86 86 86 86 87 87 87 87 87 88 88 88 88 88 88 88 88 88 88 88 88 88 88 88 88 88 88 88 88 88 88 88 88 88 88 88 88 88 88 88 88 88 88 88 88 88 88 88 88 88 88 88 88 88 88 88 88 88 88 88 88 88 88 88 88 88 88 88 88 88 88 88 88 88 88 88 88 88 88 88 88 88 88 88 88 88 88 88 88 88 88 88 88 88 88 88 88 88 88 88 88 87 87 87 87 87 87 87 87 87 87 87 87 87 87 87 87 87 87 87 87 87 87 87 87 87 87 87 87 87 87 87 87 87 87 87 87 87 87 87 87 87 87 87 87 87 88 88 88 88 88 88 89 89 89 89 89 89 89 89 89 89 89 89 89 89 89 89 89 89 89 89 89 89 89 89 89 89 89 89 89 89 89 89 89 89 89 89 89 89 89 89 89 89 89 89 89 89 89 89 89 89 89 90 90 90 90 90 90 90 90 90 90 90 90 90 90 90 90 90 90 90 90 90 90 91 91 90 90 90 90 90 90 90 90 90 90 90 90 90 90 90 90 90 90 91 91 90 90 90 90 90 90 90 90 90 91 91 91 91 91 91 91 91 91 91 91 91 91 91 91 91 91 91 91 91 91 91 91 91 91 91 91 91 91 91 91 91 91 91 91 91 90 90 90 90 90 90 90 90 89 89 89 89 89 89 89 89 89 89 89 89 89 89 89 89 89 89 89 89 89 89 89 89 89 89 89 89 89 89 89 89 89 89 88 88 87 87 87 87 87 87 87 88 88 88 88 88 88 87 87 87 87 87 87 87 86 86 86 86 85 85 86 86 86 86 85 85 85 86 86 86 87 87 88 88 88 89 89 89 89 89 89 90 90 90 89 89 89 89 90 90 90 89 89 89 89 90 90 89 89 89 89 89 89 88 88 88 88 88 88 88 87 87 87 86 86 85 84 83 83 82 81 80 79 78 76 75 73 72 71 70 69 68 67 66 66 65 65 65 64 64 64 64 64 64 64 65 65 65 65 66 66 66 67 67 68 68 69 70 70 71 71 71 71 71 70 69 68 67 66 64 64 64 63 63 63 62 62 62 63 63 63 62 62 61 61 60 60 60 59 59 59 59 59 59 59 59 59 59 59 59 59 59 59 59 59 59 59 59 59 59 59 58 58 58 58 58 58 58 58 58 57 57 57 57
85 85 85 85 85 85 85 85 85 85 85 85 84 84 84 85 85 84 84 84 84 84 84 84 84 85 85 85 85 85 85 86 86 86 86 86 86 86 86 86 86 86 86 86 86 86 86 86 86 86 86 86 86 86 86 86 86 86 86 86 86 86 86 86 86 86 86 86 86 86 86 86 86 86 86 86 86 86 86 86 87 87 87 87 88 88 88 88 88 88 88 88 88 88 88 88 88 88 88 88 88 88 88 88 88 88 88 88 88 88 88 88 88 88 88 88 88 88 88 88 88 88 88 88 88 88 88 88 88 88 88 88 88 88 88 88 88 88 88 88 88 88 88 88 88 88 88 88 88 88 88 88 88 88 88 88 88 88 88 88 88 88 88 88 88 88 88 88 88 88 88 88 88 88 88 88 87 87 87 87 87 87 87 87 87 87 87 87 87 87 87 87 87 87 87 87 87 87 87 87 87 87 87 87 87 87 87 87 87 87 87 87 87 87 87 87 87 87 87 87 87 88 88 88 88 88 88 89 89 89 89 89 89 89 89 89 89 89 89 89 89 89 89 89 89 89 89 89 89 89 89 89 89 89 89 89 89 89 89 89 89 89 89 89 89 89 89 89 89 89 89 89 89 89 89 89 89 89 90 90 90 90 90 90 90 90 90 90 90 90 90 90 90 90 90 90 90 90 90 90 91 90 90 90 90 90 90 90 90 90 90 90 90 90 90 90 90 90 90 90 90 90 90 90 90 90 90 90 90 90 90 91 91 91 91 91 91 91 91 91 91 91 91 91 91 91 91 91 91 91 91 91 91 91 91 91 91 91 91 91 91 91 91 91 91 91 90 90 90 90 90 90 90 90 89 89 89 89 89 89 89 89 89 89 89 89 89 89 89 89 89 89 89 89 89 89 89 89 89 89 89 89 89 89 89 89 89 89 89 88 88 87 87 86 86 86 86 87 87 87 87 87 87 87 87 86 86 86 86 86 86 86 85 85 85 85 85 85 85 85 85 85 85 85 85 85 86 86 87 87 88 88 88 88 89 89 89 89 89 89 89 89 89 89 89 89 89 89 89 89 89 89 89 89 89 89 89 89 88 88 88 88 88 88 88 87 87 87 87 86 86 85 84 83 82 81 80 79 78 76 75 74 73 71 70 69 68 67 67 66 65 65 65 65 65 65 65 65 65 65 65 66 66 66 67 67 67 68 68 69 69 70 71 72 73 73 74 74 74 74 74 73 72 71 70 68 67 66 65 65 64 63 63 63 63 63 63 63 63 62 61 61 60 60 60 60 59 59 59 59 59 59 59 59 59 59 58 58 58 58 58 58 59 59 58 58 58 58 58 58 57 57 57 57 57 57 57 57 57 57 57
85 85 85 85 85 85 85 85 85 85 85 85 85 84 84 84 84 84 84 84 84 84 84 85 85 85 85 85 86 86 85 86 86 86 86 86 86 86 86 86 86 86 86 86 86 86 86 86 86 86 87 87 87 86 86 86 86 86 86 86 86 86 86 86 86 86 86 86 86 86 86 86 86 86 86 86 86 86 86 86 87 87 87 87 87 87 88 88 88 88 88 88 88 88 88 88 88 88 88 88 88 88 88 88 88 88 88 88 88 88 88 88 88 88 88 88 88 88 88 88 87 88 88 88 88 88 88 88 88 88 88 88 88 88 88 88 88 88 88 88 88 88 88 88 88 88 88 88 88 88 88 88 88 88 88 88 88 88 88 88 88 88 88 88 88 88 88 88 88 88 88 88 88 88 88 88 87 87 87 87 87 87 87 87 87 87 87 87 87 87 87 87 87 87 87 87 87 87 87 87 87 87 87 87 87 87 87 87 87 87 87 87 87 87 87 87 87 87 87 87 87 88 88 88 88 88 88 89 89 89 89 89 89 89 89 89 89 89 89 89 89 89 89 89 89 89 89 89 89 89 89 89 89 89 89 89 89 89 89 89 89 89 89 89 89 89 89 89 89 89 89 89 89 89 89 89 89 89 89 90 90 90 90 90 90 90 90 90 90 90 90 90 90 90 90 90 90 90 90 90 90 90 90 90 90 90 90 90 90 90 90 90 90 90 90 90 90 90 90 90 90 90 90 90 90 90 90 90 90 90 91 91 91 91 91 91 91 91 91 91 91 91 91 91 91 91 91 91 91 91 91 91 91 91 91 91 91 91 91 91 91 91 91 91 91 91 90 90 90 90 90 90 90 89 89 89 89 89 89 89 89 89 89 89 89 89 89 89 89 89 89 89 89 89 89 89 89 89 89 89 89 89 89 89 89 89 89 88 88 88 87 87 87 86 86 86 86 86 86 86 86 86 86 86 86 85 85 85 85 85 85 85 85 84 84 84 84 84 84 84 84 84 84 84 84 85 85 86 86 87 87 87 88 88 88 89 89 89 89 89 89 89 89 89 89 89 89 89 89 89 89 89 89 89 89 88 88 88 88 88 88 88 87 87 87 87 87 86 86 86 85 84 83 82 80 79 78 77 75 74 72 71 71 70 68 67 67 66 66 66 65 65 65 65 65 65 65 65 66 66 67 67 67 68 68 69 70 70 71 72 73 74 75 76 76 77 77 77 78 77 77 76 75 73 72 71 69 68 67 66 65 65 64 64 64 64 64 63 62 62 61 61 61 60 60 60 60 60 59 59 59 59 59 59 59 59 58 58 58 58 58 58 58 58 58 58 58 58 58 58 57 57 57 57 57 57 57 57 57 56 56
85 85 85 85 85 85 85 85 85 85 85 85 85 85 84 84 84 84 84 84 84 85 85 85 85 85 85 86 86 86 86 86 86 86 86 86 86 86 86 86 86 86 86 86 86 86 86 86 86 86 86 86 86 86 86 86 86 86 86 86 86 86 86 86 86 86 86 86 86 86 86 86 86 86 86 86 86 86 86 86 87 87 87 87 87 87 87 88 88 88 88 88 88 88 88 88 88 88 88 88 88 88 88 88 88 88 88 88 88 88 88 88 88 88 88 88 88 88 88 88 88 88 88 88 88 88 88 88 88 88 88 88 88 88 88 88 88 88 88 88 88 88 88 88 88 88 88 88 88 88 88 88 88 88 88 88 88 88 88 88 88 88 88 88 88 88 88 88 88 88 88 88 88 88 88 87 87 87 87 87 87 87 87 87 87 87 87 87 87 87 87 87 87 87 87 87 87 87 87 87 87 87 87 87 87 87 87 87 87 87 87 87 87 87 87 87 87 87 87 87 87 88 88 88 88 88 88 89 89 89 89 89 89 89 89 89 89 89 89 89 89 89 89 89 89 89 89 89 89 89 89 89 89 89 89 89 89 89 89 89 89 89 89 89 89 89 89 89 89 89 89 89 89 89 89 89 89 89 89 89 90 90 90 90 90 90 90 90 90 90 90 90 90 90 90 90 90 90 90 90 90 90 90 90 90 90 90 90 90 90 90 90 90 90 90 90 90 90 90 90 90 90 90 90 90 90 90 90 90 90 90 91 91 91 90 90 91 91 91 91 91 91 91 91 91 91 91 91 91 91 91 91 91 91 91 91 91 91 91 90 91 91 91 91 91 91 90 90 90 90 90 90 89 89 89 89 89 89 89 89 89 89 89 89 89 89 89 89 89 89 89 89 89 89 89 89 89 89 89 89 89 89 89 89 89 89 89 88 88 88 87 87 87 87 86 86 86 86 86 86 86 85 85 85 85 85 85 85 85 84 84 84 84 84 83 83 83 83 83 83 83 83 83 83 83 83 84 84 85 86 86 87 87 88 88 88 88 88 88 89 89 89 89 89 89 89 89 89 89 89 89 89 88 88 88 88 88 88 88 87 87 87 87 87 86 86 86 86 85 85 84 83 82 80 78 77 76 74 73 72 70 70 69 68 67 67 66 66 66 66 65 65 66 66 66 67 67 67 68 68 69 69 70 71 71 72 73 73 74 74 75 76 77 78 79 79 79 79 79 79 78 77 76 74 73 71 70 69 68 67 66 65 64 64 64 64 64 63 62 62 62 61 61 61 60 60 60 60 60 60 60 59 59 59 59 59 58 58 58 58 58 58 58 58 58 58 58 58 58 58 57 57 57 57 57 57 57 57 57 56 56
85 85 85 85 85 85 85 85 85 85 85 85 85 84 84 84 84 84 84 84 84 85 85 85 85 85 85 85 86 86 86 86 86 86 86 86 86 86 86 86 86 86 86 86 86 86 86 86 86 86 86 86 86 86 86 86 86 86 86 86 86 86 86 86 86 86 86 86 86 86 86 86 86 86 86 86 86 86 86 86 87 87 87 87 87 87 87 88 88 88 88 88 88 88 88 88 88 88 88 88 88 88 88 88 88 88 88 88 88 88 88 88 88 88 88 88 88 88 88 88 88 88 88 88 88 88 88 88 88 88 88 88 88 88 88 88 88 88 88 88 88 88 88 88 88 88 88 88 88 88 88 88 88 88 88 88 88 88 88 88 88 88 88 88 88 88 88 88 88 88 88 88 88 88 88 87 87 87 87 87 87 87 87 87 87 87 87 87 87 87 87 87 87 87 87 87 87 87 87 87 87 87 87 87 87 87 87 87 87 87 87 87 87 87 87 87 87 87 87 87 87 87 88 88 88 88 88 88 89 89 89 89 89 89 89 89 89 89 89 89 89 89 89 89 89 89 89 89 89 89 89 89 89 89 89 89 89 89 89 89 89 89 89 89 89 89 89 89 89 89 89 89 89 89 89 89 89 89 89 89 90 90 90 90 90 90 90 90 90 90 90 90 90 90 90 90 90 90 90 90 90 90 90 90 90 90 90 90 90 90 90 90 90 90 90 90 90 90 90 90 90 90 90 90 90 90 90 90 90 90 90 90 90 90 90 91 91 91 91 91 91 91 91 91 91 91 91 91 91 91 91 91 91 91 91 91 90 90 90 90 91 91 91 91 90 90 90 90 90 90 90 89 89 89 89 90 89 90 90 90 89 89 89 90 90 90 90 90 90 89 89 89 89 89 89 89 89 89 89 89 89 89 89 89 89 88 88 88 88 88 87 87 87 87 87 86 86 86 86 86 86 85 85 85 85 85 84 84 84 84 84 84 84 84 83 83 83 83 82 82 82 82 82 82 82 82 82 83 83 84 85 86 87 87 87 88 88 88 88 88 89 89 89 89 89 89 89 89 89 88 88 88 88 88 87 87 87 87 87 87 86 86 86 86 85 85 85 85 84 83 82 81 80 78 76 75 73 72 72 70 69 68 68 67 67 66 66 66 66 66 66 66 66 67 68 69 69 70 70 71 72 72 73 74 75 75 76 76 76 77 78 78 79 80 81 81 81 81 80 80 79 78 76 74 73 71 69 68 66 66 65 65 65 65 64 64 63 63 63 62 62 62 61 61 61 61 61 61 60 60 60 60 60 59 59 59 59 58 58 58 58 58 58 58 58 58 58 58 58 58 58 57 57 57 57 57 57 57 57 56 56
85 85 85 85 85 85 85 85 85 85 85 85 85 84 84 84 85 85 85 85 85 85 85 85 85 85 85 85 85 86 86 86 85 86 86 86 86 86 86 86 86 86 86 86 86 86 86 86 86 86 86 86 86 86 86 86 86 86 86 86 86 86 86 86 86 86 86 86 86 86 86 86 86 86 86 86 86 86 86 86 87 87 87 87 87 87 87 87 88 88 88 88 88 88 88 88 88 88 88 88 88 88 88 88 88 88 88 88 88 88 88 88 88 88 88 88 88 88 88 88 88 88 88 88 88 88 88 88 88 88 88 88 88 88 88 88 88 88 88 88 88 88 88 88 88 88 88 88 88 88 88 88 88 88 88 88 88 88 88 88 88 88 88 88 88 88 88 88 88 88 88 88 88 88 88 87 87 87 87 87 87 87 87 87 87 87 87 87 87 87 87 87 87 87 87 87 87 87 87 87 87 87 87 87 87 87 87 87 87 87 87 87 87 87 87 87 87 87 87 87 87 87 88 88 88 88 88 88 89 89 89 89 89 89 89 89 89 89 89 89 89 89 89 89 89 89 89 89 89 89 89 89 89 89 89 89 89 89 89 89 89 89 89 89 89 89 89 89 89 89 89 89 89 89 89 89 89 89 89 89 89 90 90 90 90 90 90 90 90 90 90 90 90 90 90 90 90 90 90 90 90 90 90 90 90 90 90 90 90 90 90 90 90 90 90 90 90 90 90 90 90 90 90 90 90 90 90 90 90 90 90 90 90 90 90 91 91 91 91 91 91 91 91 91 91 91 91 91 91 91 91 91 91 91 90 90 90 90 90 91 91 91 91 91 90 90 90 90 90 90 90 89 89 90 90 90 90 90 90 90 90 90 90 90 90 90 90 90 90 89 89 89 89 89 89 89 89 89 89 89 89 89 88 88 88 88 88 88 88 88 88 87 87 87 87 87 87 86 86 86 86 86 86 85 85 85 85 85 84 84 84 84 84 84 83 83 83 83 82 82 82 82 82 81 81 81 81 81 82 82 83 84 85 86 87 87 87 87 87 88 88 88 89 89 89 88 88 88 88 88 87 87 87 87 86 86 86 86 86 86 85 85 85 85 84 84 83 83 82 81 80 79 78 76 74 73 72 71 70 69 68 67 67 67 67 67 67 67 67 67 67 68 68 69 70 71 72 73 73 74 75 75 76 77 77 78 78 79 78 79 79 80 81 81 81 81 81 80 80 79 78 76 74 73 71 69 68 67 66 65 65 65 65 65 64 64 64 64 63 63 63 63 62 62 61 61 61 61 61 61 60 60 60 60 60 59 59 59 59 58 58 58 58 58 58 58 58 58 58 58 58 58 57 57 57 57 57 57 56 56 56
85 85 85 85 85 85 85 85 85 85 84 84 85 85 85 85 85 85 85 85 85 85 85 85 85 85 85 85 85 85 85 85 85 86 86 86 86 86 86 86 86 86 86 86 86 86 86 86 86 86 86 86 86 86 86 86 86 86 86 86 86 86 86 86 86 86 86 86 86 86 85 85 86 86 86 86 86 86 86 86 87 87 87 87 87 87 87 87 87 88 88 88 88 88 88 88 88 88 88 88 88 88 88 88 88 88 88 88 88 88 88 88 88 88 88 88 88 88 88 88 88 88 88 88 88 88 88 88 88 88 88 88 88 88 88 88 88 88 88 88 88 88 88 88 88 88 88 88 88 88 88 88 88 88 88 88 88 88 88 88 88 88 88 88 88 88 88 88 88 88 88 88 88 88 87 87 87 87 87 87 87 87 87 87 87 87 87 87 87 87 87 87 87 87 87 87 87 87 87 87 87 87 87 87 87 87 87 87 87 87 87 87 87 87 87 87 87 87 87 87 87 87 88 88 88 88 88 89 89 89 89 89 89 89 89 89 89 89 89 89 89 89 89 89 89 89 89 89 89 89 89 89 89 89 89 89 89 89 89 89 89 89 89 89 89 89 89 89 89 89 89 89 89 89 89 89 89 89 89 89 89 89 90 90 90 90 90 90 90 90 90 90 90 90 90 90 90 90 90 90 90 90 90 90 90 90 90 90 90 90 90 90 90 90 90 90 90 90 90 90 90 90 90 90 90 90 90 90 90 90 90 90 90 90 90 91 91 91 91 91 91 91 91 91 91 91 91 91 91 91 91 91 91 91 90 90 90 90 90 91 91 91 91 90 90 90 90 90 90 90 89 90 90 90 90 90 90 90 90 90 90 90 90 90 90 90 90 90 90 89 89 89 89 89 89 89 89 89 89 89 89 89 89 88 88 88 88 88 88 88 88 88 88 88 88 87 87 87 87 87 87 86 86 86 86 86 85 85 85 85 84 84 84 84 84 84 83 83 83 83 83 82 82 81 81 81 80 80 80 80 81 82 83 84 85 86 86 86 87 87 88 88 88 88 88 88 88 88 87 87 86 86 86 86 85 85 85 85 85 85 84 84 84 84 83 82 81 80 79 78 77 76 75 73 72 71 70 69 69 68 67 67 67 67 67 68 69 69 69 69 70 70 70 71 73 74 75 75 76 77 78 78 80 80 80 80 80 80 80 81 81 81 81 81 81 81 81 80 79 77 75 73 71 70 68 67 67 66 66 66 66 65 65 65 65 65 65 65 65 64 64 63 63 62 62 62 61 61 61 61 61 61 61 61 60 60 60 60 59 59 58 58 58 58 58 58 58 58 58 58 58 58 57 57 57 57 57 57 57 56 56
85 85 85 85 85 85 85 85 85 85 85 85 85 85 85 85 85 85 86 86 86 85 85 85 86 85 85 85 85 85 85 86 86 86 86 86 86 86 86 86 86 86 86 86 86 86 86 86 86 86 86 86 86 86 86 86 86 86 86 86 86 86 86 86 86 86 86 86 86 86 85 85 86 86 86 86 86 86 86 86 87 87 87 87 87 87 87 87 87 88 88 88 88 88 88 88 88 88 88 88 88 88 88 88 88 88 88 88 88 88 88 88 88 88 88 88 88 88 88 88 88 88 88 88 88 88 88 88 88 88 88 88 88 88 88 88 88 88 88 88 88 88 88 88 88 88 88 88 88 88 88 88 88 88 88 88 88 88 88 88 88 88 88 88 88 88 88 88 88 88 88 88 88 88 87 87 87 87 87 87 87 87 87 87 87 87 87 87 87 87 87 87 87 87 87 87 87 87 87 87 87 88 88 87 87 87 87 87 87 87 87 87 87 87 87 87 87 87 87 87 87 87 88 88 88 88 88 89 89 89 89 89 89 89 89 89 89 89 89 89 89 89 89 89 89 89 89 89 89 89 89 89 89 89 89 89 89 89 89 89 89 89 89 89 89 89 89 89 89 89 89 89 89 89 89 89 89 89 89 89 89 89 90 90 90 90 90 90 90 90 90 90 90 90 90 90 90 90 90 90 90 90 90 90 90 90 90 90 90 90 90 90 90 90 90 90 90 90 90 90 90 90 90 90 90 90 90 90 90 90 90 90 90 90 90 90 91 91 91 91 91 91 91 91 91 91 91 91 91 91 91 91 91 91 90 90 90 90 91 91 91 91 91 90 90 90 90 90 90 90 90 90 90 90 90 90 90 90 90 90 90 90 90 90 90 90 90 90 90 89 89 89 89 89 89 89 89 89 89 89 89 89 89 89 89 89 88 88 88 88 88 88 88 88 88 88 88 88 87 87 87 87 87 87 87 86 86 86 86 85 85 85 85 85 84 84 84 84 84 83 83 83 82 82 81 81 81 80 80 80 80 80 81 82 83 84 84 85 86 86 87 87 88 88 88 87 87 87 86 86 85 85 85 84 84 84 83 83 83 82 82 81 81 81 81 80 78 78 77 76 75 74 72 71 71 70 69 68 68 67 67 67 68 68 69 70 71 72 72 72 72 72 72 74 75 76 77 78 79 79 80 81 82 82 82 81 81 81 81 82 82 82 82 81 80 80 79 78 76 75 73 71 69 68 67 67 67 67 67 67 66 66 66 66 66 66 66 66 66 65 65 64 64 63 63 62 62 62 62 62 62 62 62 61 61 61 61 60 60 59 59 58 58 58 58 58 58 58 57 57 58 58 57 57 57 57 57 57 56 56 56
85 85 85 85 85 85 85 85 85 85 85 85 85 85 86 86 86 86 86 86 86 86 86 86 86 86 86 86 86 86 86 86 86 86 86 86 86 86 86 86 86 86 86 86 86 86 86 86 86 86 86 86 86 86 86 86 86 86 86 86 86 86 86 86 86 86 86 86 86 86 86 86 86 86 86 86 86 86 86 86 87 87 87 87 87 87 87 87 88 88 88 88 88 88 88 88 88 88 88 88 88 88 88 88 88 88 88 88 88 88 88 88 88 88 88 88 88 88 88 88 88 88 88 88 88 88 88 88 88 88 88 88 88 88 88 88 88 88 88 88 88 88 88 88 88 88 88 88 88 88 88 88 88 88 88 88 88 88 88 88 88 88 88 88 88 88 88 88 88 88 88 88 88 88 88 87 87 87 87 87 87 87 87 87 87 87 87 87 87 87 87 87 87 87 87 88 88 88 87 88 88 88 88 87 87 87 87 87 87 87 87 87 87 87 87 87 87 87 87 87 87 87 88 88 88 88 89 89 89 89 89 89 89 89 89 89 89 89 89 89 89 89 89 89 89 89 89 89 89 89 89 89 89 89 89 89 89 89 89 89 89 89 89 89 89 89 89 89 89 89 89 89 89 89 89 89 89 89 89 89 89 89 89 90 90 90 90 90 90 90 90 90 90 90 90 90 90 90 90 90 90 90 90 90 90 90 90 90 90 90 90 90 90 90 90 90 90 90 90 90 90 90 90 90 90 90 90 90 90 90 90 90 90 90 90 90 90 90 90 90 91 91 91 91 91 91 91 91 91 91 91 91 91 91 91 91 91 91 91 91 91 91 91 90 90 90 90 90 90 90 90 90 90 90 90 90 90 90 90 90 90 90 90 90 90 90 90 90 89 89 89 89 89 89 89 89 89 89 89 89 89 89 89 89 89 89 89 89 89 89 89 89 89 89 89 89 88 88 88 88 88 88 87 87 87 87 87 86 86 86 85 85 85 85 85 85 85 84 84 84 84 83 83 83 82 82 82 81 81 80 79 79 79 79 80 81 82 83 84 85 86 86 87 87 87 86 85 85 85 84 84 83 83 83 82 82 80 80 80 79 79 78 78 78 77 76 75 75 74 73 72 71 71 70 69 69 68 68 67 67 67 68 69 70 71 73 74 75 76 75 74 74 74 76 78 79 80 81 81 82 83 83 83 83 83 82 82 82 82 82 82 82 81 80 79 77 76 75 73 72 70 69 68 68 68 67 67 67 67 67 67 67 67 67 68 68 68 67 66 66 65 65 64 64 63 63 62 62 62 62 62 62 62 62 62 61 61 61 60 60 59 59 58 58 58 58 58 58 58 57 57 57 57 57 57 57 57 57 56 56 56
85 85 85 85 85 85 85 85 85 86 86 86 85 86 86 86 86 86 86 86 86 86 86 86 86 86 86 86 86 86 86 86 86 86 86 86 86 86 86 86 86 86 86 86 86 86 86 86 86 86 86 86 86 86 86 86 86 86 86 86 86 86 86 86 86 86 86 86 86 86 86 86 86 86 86 86 86 86 86 86 87 87 87 87 87 87 87 88 88 88 88 88 88 88 88 88 88 88 88 88 88 88 88 88 88 88 88 88 88 88 88 88 88 88 88 88 88 88 88 88 88 88 88 88 88 88 88 88 88 88 88 88 88 88 88 88 88 88 88 88 88 88 88 88 88 88 88 88 88 88 88 88 88 88 88 88 88 88 88 88 88 88 88 88 88 88 88 88 88 88 88 88 88 88 88 88 87 87 87 87 87 87 87 87 87 87 87 87 87 87 87 87 87 88 88 88 88 88 88 88 88 88 88 88 87 87 87 87 87 87 87 87 87 87 87 87 87 87 87 87 87 87 88 88 88 88 89 89 89 89 89 89 89 89 89 89 89 89 89 89 89 89 89 89 89 89 89 89 89 89 89 89 89 89 89 89 89 89 89 89 89 89 89 89 89 89 89 89 89 89 89 89 89 89 89 89 89 89 89 89 89 89 89 89 89 90 90 90 90 90 90 90 90 90 90 90 90 90 90 90 90 90 90 90 90 90 90 90 90 90 90 90 90 90 90 90 90 90 90 90 90 90 90 90 90 90 90 90 90 90 90 90 90 90 90 90 90 90 90 91 91 91 91 91 91 91 91 91 91 91 91 91 91 91 91 91 91 91 91 91 91 91 91 90 90 90 90 90 90 90 90 90 90 90 90 90 90 90 90 90 90 90 90 90 90 90 90 90 89 89 89 89 89 89 89 89 89 89 89 89 89 89 89 89 89 89 89 89 89 89 89 89 89 89 89 89 89 89 88 88 88 88 88 88 88 87 87 87 86 86 86 86 86 86 85 85 85 85 85 84 84 84 84 83 83 83 83 82 81 80 80 79 78 78 78 79 79 81 82 83 83 84 84 85 85 84 83 83 83 82 81 81 80 80 80 79 78 77 77 76 76 75 75 75 74 74 73 72 72 71 71 70 69 69 68 68 68 68 68 68 69 70 72 73 74 76 77 78 79 78 76 76 77 78 80 81 82 82 83 83 84 84 84 84 83 83 82 82 82 82 81 81 80 78 77 75 74 73 72 70 69 69 68 68 68 68 68 68 68 68 68 69 68 69 69 69 69 68 67 66 65 65 65 64 64 63 63 63 63 63 63 63 63 63 63 62 62 61 61 61 60 60 59 59 59 58 58 58 58 58 58 58 57 58 58 58 57 57 57 56 56
85 85 85 85 85 85 85 85 86 86 86 86 86 86 86 86 86 86 86 86 86 86 86 86 85 86 86 86 86 86 86 86 86 86 86 86 86 86 86 86 86 86 86 86 86 86 86 86 86 86 86 86 86 86 86 86 86 86 86 86 86 86 86 86 86 86 85 85 85 85 86 86 86 86 86 86 86 86 86 86 87 87 87 87 88 88 88 88 88 88 88 88 88 88 88 88 88 88 88 88 88 88 88 88 88 88 88 88 88 88 88 88 88 88 88 88 88 88 88 88 88 88 88 88 88 88 88 88 88 88 88 88 88 88 88 88 88 88 88 88 88 88 88 88 88 88 88 88 88 88 88 88 88 88 88 88 88 88 88 88 88 88 88 88 88 88 88 88 88 88 88 88 88 88 88 88 88 88 88 87 87 87 87 87 87 87 87 87 87 87 87 88 88 88 88 88 88 88 88 88 88 88 88 88 87 87 87 87 87 87 87 87 87 87 87 87 87 87 87 87 87 88 88 88 88 88 88 89 89 89 89 89 89 89 89 89 89 89 89 89 89 89 89 89 89 89 89 89 89 89 89 89 89 89 89 89 89 89 89 89 89 89 89 89 89 89 89 89 89 89 89 89 89 89 89 89 89 89 89 89 89 89 89 89 89 90 90 90 90 90 90 90 90 90 90 90 90 90 90 90 90 90 90 90 90 90 90 90 90 90 90 90 90 90 90 90 90 90 90 90 90 90 90 90 90 90 90 90 90 90 90 90 90 90 90 91 91 91 91 91 91 91 91 91 91 91 91 91 91 91 91 91 91 91 91 91 91 91 91 91 91 91 91 90 90 90 90 90 90 90 90 90 90 90 90 90 90 90 90 90 90 90 90 90 90 90 90 90 89 89 89 89 89 89 89 89 89 89 89 89 89 89 89 89 89 89 89 89 89 89 89 89 89 89 89 89 89 89 89 89 88 88 88 88 88 88 87 87 87 86 86 86 86 86 86 86 86 85 85 85 85 85 84 84 84 84 84 83 82 81 80 79 79 78 78 78 78 78 79 79 80 81 81 82 82 82 81 80 80 79 78 78 77 76 76 76 75 75 74 74 73 73 72 72 71 71 71 70 70 70 69 69 69 68 68 68 68 68 69 70 72 73 75 76 78 79 80 81 81 79 78 78 79 80 81 82 83 84 84 84 85 84 84 84 83 83 82 82 82 81 80 79 78 76 74 73 72 71 70 70 69 69 69 69 69 69 69 69 69 69 70 70 69 70 70 70 70 69 68 67 66 65 65 64 64 64 63 63 63 63 63 64 64 64 64 63 63 62 62 61 61 60 60 59 59 59 59 59 59 59 58 58 58 58 58 58 58 57 57 56 56
86 85 85 85 86 86 86 86 86 86 86 86 86 86 86 86 86 86 86 86 86 86 86 86 86 86 86 86 86 86 86 86 86 86 86 86 86 86 86 86 86 86 86 86 86 86 86 86 86 86 86 86 86 86 86 86 86 86 86 86 86 86 86 86 86 86 85 85 85 85 85 86 86 86 86 86 86 86 86 86 87 87 87 88 88 88 88 88 88 88 88 88 88 88 88 88 88 88 88 88 88 88 88 88 88 88 89 88 88 88 88 88 88 88 88 88 88 88 88 88 88 88 88 88 88 88 88 88 88 88 88 88 88 88 88 88 88 88 88 88 88 88 88 88 88 88 88 88 88 88 88 88 88 88 88 88 88 88 88 88 88 88 88 88 88 88 88 88 88 88 88 88 88 88 88 88 88 88 88 88 87 87 87 87 87 87 87 87 87 87 87 88 88 88 88 88 88 88 88 88 88 88 88 88 87 87 87 87 87 87 87 87 87 87 87 87 87 87 87 87 87 88 88 88 88 88 88 89 89 89 89 89 89 89 89 89 89 89 89 89 89 89 89 89 89 89 89 89 89 89 89 89 89 89 89 89 89 89 89 89 89 89 89 89 89 89 89 89 89 89 89 89 89 89 89 89 89 89 89 89 89 89 89 89 89 89 90 90 90 90 90 90 90 90 90 90 90 90 90 90 90 90 90 90 90 90 90 90 90 90 90 90 90 90 90 90 90 90 90 90 90 90 90 90 90 90 90 90 90 90 90 90 90 90 91 91 91 91 91 91 91 91 91 91 91 91 91 91 91 91 91 91 91 91 91 91 91 91 91 91 91 91 91 90 90 90 90 90 90 90 90 90 90 90 90 89 90 90 90 90 90 90 90 90 90 90 90 90 89 89 89 89 89 89 89 89 89 89 89 89 89 89 89 89 89 89 89 89 89 89 89 89 89 89 89 89 89 89 89 89 89 88 88 88 88 88 88 87 87 87 87 87 87 87 86 86 86 86 86 86 85 85 85 85 85 84 84 83 82 82 81 80 79 79 78 77 77 77 77 77 78 78 78 79 79 79 78 78 77 77 76 75 75 74 74 74 73 73 72 72 72 71 71 71 70 70 70 70 69 69 69 69 68 68 68 68 68 69 71 73 75 77 78 79 80 81 82 82 82 81 79 80 81 82 83 83 84 84 85 85 85 85 84 84 83 82 82 81 80 79 78 77 76 74 73 72 71 71 71 71 71 71 71 71 70 70 70 71 71 71 71 71 71 71 72 71 71 70 68 67 66 65 65 65 64 64 64 64 64 64 64 64 65 65 65 64 63 63 63 62 62 62 61 60 60 60 60 59 59 59 59 59 59 59 58 58 58 58 57 57 56
86 86 85 86 86 86 86 86 86 86 86 86 86 86 86 86 86 86 86 86 86 86 86 86 86 86 86 86 85 85 86 86 86 86 86 86 86 86 86 86 86 86 86 86 86 86 86 86 86 86 86 86 86 86 86 86 86 86 86 86 86 86 86 86 86 86 85 85 85 85 85 86 86 86 86 86 86 86 86 87 87 87 87 88 88 88 88 88 88 88 88 88 88 88 88 88 88 88 88 88 88 88 88 88 88 88 88 88 88 88 88 88 88 88 88 88 88 88 88 88 88 88 88 88 88 88 88 88 88 88 88 88 88 88 88 88 88 88 88 88 88 88 88 88 88 88 88 88 88 88 88 88 88 88 88 88 88 88 88 88 88 88 88 88 88 88 88 88 88 88 88 88 88 88 88 88 88 88 88 88 88 87 87 87 87 87 87 87 87 87 87 88 88 88 88 88 88 88 88 88 88 88 88 87 87 87 87 87 87 87 87 87 87 87 87 87 87 87 87 87 87 88 88 88 88 88 88 88 89 89 89 89 89 89 89 89 89 89 89 89 89 89 89 89 89 90 90 90 90 90 90 89 89 89 89 89 89 89 89 89 89 89 89 89 89 89 89 89 89 89 89 89 89 89 89 89 89 89 89 89 89 89 89 89 89 89 90 90 90 90 90 90 90 90 90 90 90 90 90 90 90 90 90 90 90 90 90 90 90 90 90 90 90 90 90 90 90 90 90 90 90 90 90 90 90 90 90 90 90 90 90 90 90 90 90 90 90 90 91 91 90 90 90 90 91 91 91 91 91 91 91 91 91 91 91 91 91 91 91 91 91 91 90 90 90 90 90 90 90 90 90 90 90 90 89 89 90 90 90 90 90 90 90 90 90 90 90 89 89 89 89 89 90 90 90 89 89 89 89 89 89 89 89 89 89 89 89 89 89 89 89 90 90 90 90 90 89 89 89 89 89 89 88 88 88 88 88 88 87 87 87 87 87 87 87 87 86 86 86 86 86 86 86 85 85 85 84 84 83 82 81 81 80 79 78 78 77 77 77 76 76 76 76 76 76 75 75 75 75 74 74 73 73 73 73 73 72 72 72 72 71 71 71 71 71 70 70 70 70 69 69 69 68 68 68 68 69 71 74 77 79 80 81 81 82 83 83 83 82 82 81 81 82 83 84 84 85 85 85 85 85 84 84 83 83 81 80 79 78 77 75 74 74 73 72 72 72 72 72 72 72 72 72 72 72 72 73 73 73 73 73 73 73 73 73 72 71 70 68 67 66 65 65 65 65 65 65 65 65 65 65 65 65 65 65 65 64 64 64 64 63 63 62 61 61 61 60 60 60 59 59 59 59 59 59 58 58 58 57 57 57
86 86 86 86 86 86 86 86 86 86 86 86 86 86 86 86 86 86 86 86 86 86 86 86 86 86 86 85 85 85 85 85 85 86 86 86 86 86 86 86 86 86 86 86 86 86 86 86 86 86 86 86 86 86 86 86 86 86 86 86 86 86 86 86 86 86 85 85 85 85 85 86 86 86 86 86 86 86 86 87 87 87 88 88 88 88 88 88 88 88 88 88 88 88 88 88 88 88 88 88 88 88 88 88 88 88 88 88 88 88 88 88 88 88 88 88 88 88 88 88 88 88 88 88 88 88 88 88 88 88 88 88 88 88 88 88 88 88 88 88 88 88 88 88 88 88 88 88 88 88 88 88 88 88 88 88 88 88 88 88 88 88 88 88 88 88 88 88 88 88 88 88 88 88 88 88 88 88 88 88 88 88 88 87 87 87 87 87 87 87 88 88 88 88 88 88 88 88 88 88 88 88 88 87 87 87 87 87 87 87 87 87 87 87 87 87 87 87 87 87 87 87 88 88 88 88 88 88 88 89 89 89 89 89 89 89 89 89 89 89 89 89 89 89 90 90 90 90 90 90 90 90 89 89 89 89 89 89 89 89 89 89 89 89 89 89 89 89 89 89 89 89 89 89 89 89 89 89 89 89 89 89 89 89 89 89 90 90 90 90 90 90 90 90 90 90 90 90 90 90 90 90 90 90 90 90 90 90 90 90 90 90 90 90 90 90 90 90 90 90 90 90 90 90 90 90 90 90 90 90 90 90 90 90 90 90 90 90 91 91 90 90 90 90 91 91 91 91 91 91 91 91 91 91 91 91 91 91 91 91 91 90 90 90 90 90 90 90 90 90 90 90 90 89 89 89 90 90 90 90 90 90 90 90 90 90 90 90 90 90 89 90 90 90 90 89 89 89 89 89 89 89 89 89 89 89 89 89 89 89 90 90 90 90 90 90 89 89 89 89 89 89 88 88 88 88 88 88 88 88 88 87 87 87 87 87 87 87 86 86 86 86 86 86 85 85 84 84 83 83 82 82 81 80 79 79 78 77 77 76 76 76 76 75 75 75 75 74 74 74 74 73 73 73 73 73 73 72 72 72 72 72 72 71 71 71 70 70 70 69 69 69 68 68 68 69 71 73 77 79 81 82 83 83 83 84 84 83 83 83 82 83 83 84 84 85 85 85 85 85 85 84 83 82 81 80 78 77 76 75 74 74 73 73 73 73 74 74 74 74 74 74 74 74 74 75 75 75 75 75 75 75 74 74 73 72 71 70 68 67 66 66 66 66 66 66 66 66 67 67 66 66 66 66 66 65 65 65 64 64 64 63 63 62 62 61 61 60 60 60 60 60 59 59 59 59 58 58 58 57 57
86 86 86 86 86 86 86 86 86 86 86 86 86 86 86 86 86 86 86 86 86 86 86 86 86 86 85 85 85 85 85 85 85 85 86 86 86 86 86 86 86 86 86 86 86 86 86 86 86 86 86 86 86 86 86 86 86 86 86 86 86 86 86 86 86 86 85 85 85 85 85 86 86 86 86 86 86 86 86 87 87 87 88 88 88 88 88 88 88 88 88 88 88 88 88 88 88 88 88 88 88 88 88 88 88 88 88 88 88 88 88 88 88 88 88 88 88 88 88 88 88 88 88 88 88 88 88 88 88 88 88 88 88 88 88 88 88 88 88 88 88 88 88 88 88 88 88 88 88 88 88 88 88 88 88 88 88 88 88 88 88 88 88 88 88 88 88 88 88 88 88 88 88 88 88 88 88 88 88 88 88 88 88 88 88 88 88 88 88 88 88 88 88 88 88 88 88 88 88 88 88 88 88 87 87 87 87 87 87 87 87 87 87 87 87 87 87 87 87 87 87 87 88 88 88 88 88 88 88 89 89 89 89 89 89 89 89 89 89 89 89 89 89 89 90 90 90 90 90 90 90 90 90 89 89 89 89 89 89 89 89 89 89 89 89 89 89 89 89 89 89 89 89 89 89 89 89 89 89 89 89 89 89 89 89 89 89 90 90 90 90 90 90 90 90 90 90 90 90 90 90 90 90 90 90 90 90 90 90 90 90 90 90 90 90 90 90 90 90 90 90 90 91 91 91 91 90 90 91 91 90 90 90 90 90 90 90 90 90 91 90 90 90 91 91 91 91 91 91 91 91 91 91 91 91 91 91 91 91 90 90 90 90 90 90 90 90 90 90 90 90 90 90 90 89 89 89 90 90 90 90 90 90 90 90 90 90 90 90 90 90 90 90 90 90 89 89 89 89 89 90 90 90 90 90 90 90 90 90 90 90 90 90 90 90 90 89 89 89 89 89 89 88 88 89 88 88 88 88 88 88 88 88 87 87 87 87 87 87 87 87 86 86 86 85 85 85 84 84 83 83 82 82 81 80 80 79 78 77 77 77 76 77 76 76 76 76 75 75 75 75 75 75 74 74 74 73 73 73 73 73 73 73 72 72 71 71 70 70 70 69 69 69 69 69 70 73 76 79 81 83 84 84 84 84 84 84 84 84 84 83 84 84 85 85 85 85 85 85 84 84 83 82 80 79 77 76 75 75 75 74 74 74 74 75 75 76 76 77 77 77 77 77 77 77 77 77 77 76 76 76 75 75 74 74 72 71 69 68 67 66 66 66 67 67 67 68 68 69 68 68 68 67 67 66 66 65 65 65 64 64 63 63 63 62 62 61 61 60 60 60 60 60 59 59 59 59 58 58 57 57
86 86 86 86 86 86 86 86 86 86 86 86 86 86 86 86 86 86 86 86 86 86 86 86 85 85 85 85 85 85 85 85 85 85 85 86 86 86 86 86 86 86 86 86 86 86 86 86 86 86 86 86 86 86 86 86 86 86 86 86 86 86 86 86 86 86 86 85 85 85 85 86 86 86 86 86 86 86 86 87 87 87 87 88 88 88 88 88 88 88 88 88 88 88 88 88 88 88 88 88 88 88 88 88 88 88 88 88 88 88 88 88 88 88 88 88 88 88 88 88 88 88 88 88 88 88 88 88 88 88 88 88 88 88 88 88 88 88 88 88 88 88 88 88 88 88 88 88 88 88 88 88 88 88 88 88 88 88 88 88 88 88 88 88 88 88 88 88 88 88 88 88 88 88 88 88 88 88 88 88 88 88 88 88 88 88 88 88 88 88 88 88 88 88 88 88 88 88 88 88 88 88 87 87 87 87 87 87 87 87 87 87 87 87 87 87 87 87 87 87 87 87 88 88 88 88 88 88 88 88 89 89 89 89 89 89 89 89 89 89 89 89 89 89 90 90 90 90 90 90 90 90 90 89 89 89 89 89 89 89 89 89 89 89 89 89 89 89 89 89 89 89 89 89 89 89 89 89 89 89 89 89 89 89 89 89 89 90 90 90 90 90 90 90 90 90 90 90 90 90 90 90 90 90 90 90 90 90 90 90 90 90 90 90 90 90 90 90 90 90 90 91 91 91 91 91 91 90 90 90 90 90 90 90 90 90 90 90 90 91 90 91 91 91 91 91 91 91 91 91 91 91 91 91 91 91 91 90 90 90 90 90 90 90 90 90 90 90 90 90 90 90 90 90 89 89 90 90 90 90 90 90 90 90 90 90 90 90 90 90 90 90 90 90 90 90 90 90 90 90 90 90 90 90 90 90 90 90 90 90 90 90 90 90 90 90 89 89 89 89 89 89 89 89 89 89 88 88 88 88 88 88 88 88 88 87 87 87 87 87 87 87 86 86 86 85 85 84 84 84 83 83 83 82 81 80 79 79 78 78 78 78 78 78 77 77 77 77 77 77 77 76 76 76 76 75 75 75 74 74 74 74 73 73 72 72 71 71 71 70 69 69 69 69 70 72 75 78 81 83 84 85 85 85 85 85 85 85 84 84 84 84 85 85 85 85 85 85 84 84 83 82 80 79 78 77 76 76 76 75 75 75 75 76 77 77 78 78 79 79 79 79 79 79 79 79 78 78 78 77 76 76 75 75 74 72 70 69 68 67 67 67 67 68 68 69 70 70 70 70 69 69 68 68 67 66 66 66 65 65 64 64 64 63 63 62 62 61 61 60 60 60 60 59 59 59 59 58 58 57 57
86 86 86 86 86 86 86 86 86 86 86 86 86 86 86 86 86 86 86 86 86 86 86 85 85 85 85 85 85 85 85 85 85 85 85 85 86 86 86 85 85 85 86 86 86 86 86 86 86 86 86 86 86 86 86 86 86 86 86 86 86 86 86 86 86 86 86 85 85 85 86 86 86 86 86 86 86 86 86 86 87 87 87 88 88 88 88 88 88 88 88 88 88 88 88 88 88 88 88 88 88 88 88 88 88 88 88 88 88 88 88 88 88 88 88 88 88 88 88 88 88 88 88 88 88 88 88 88 88 88 88 88 88 88 88 88 88 88 88 88 88 88 88 88 88 88 88 88 88 88 88 88 88 88 88 88 88 88 88 88 88 88 88 88 88 88 88 88 88 88 88 88 88 88 88 88 88 88 88 88 88 88 88 88 88 88 88 88 88 88 88 88 88 88 88 88 88 88 88 88 88 88 88 87 87 87 87 87 87 87 87 87 86 86 87 87 87 87 87 87 87 87 87 88 88 88 88 88 88 88 89 89 89 89 89 89 89 89 89 89 89 89 89 90 90 90 90 90 90 90 90 90 90 90 90 89 89 89 89 89 89 89 89 89 89 89 89 89 89 89 89 89 89 89 89 89 89 89 89 89 89 89 89 89 89 89 90 90 90 90 90 90 90 90 90 89 89 89 90 90 90 90 90 90 90 90 90 90 90 90 90 90 90 90 90 90 90 90 90 91 91 91 91 91 91 91 91 90 90 90 90 90 90 90 90 90 90 90 90 91 90 91 91 91 91 91 91 91 91 91 91 91 91 91 91 91 90 90 90 90 90 90 90 90 90 90 90 90 90 90 90 90 90 90 90 90 90 90 90 90 90 90 90 90 90 90 89 89 89 90 90 90 90 90 90 90 90 90 90 90 90 90 90 90 90 90 90 90 90 90 90 90 90 90 90 90 90 89 89 89 89 89 89 89 89 89 89 88 89 88 88 88 88 88 88 88 87 87 87 87 87 87 87 86 86 85 85 85 85 84 84 83 83 82 81 80 79 79 79 79 79 79 79 79 79 79 79 79 79 79 78 78 78 78 77 77 76 76 76 75 75 74 74 73 72 72 71 71 71 70 69 69 69 70 71 73 76 79 83 85 85 86 85 85 85 85 85 85 85 85 85 85 85 85 85 85 85 84 84 83 82 81 79 78 78 78 78 78 77 77 77 77 77 78 78 79 80 80 80 81 81 81 81 81 80 80 79 79 78 78 77 76 76 75 73 72 70 69 68 68 68 68 69 70 70 71 71 71 71 71 71 70 69 68 68 67 67 66 66 66 65 65 64 64 63 62 62 61 61 61 60 60 60 60 59 59 59 58 58 58 58
86 86 86 86 86 86 86 86 86 86 86 86 86 86 86 86 86 86 86 86 86 86 85 85 85 85 85 85 85 85 85 85 85 85 85 85 85 85 85 85 85 85 85 86 86 86 86 86 86 86 86 86 86 86 86 86 86 86 86 86 86 86 86 86 86 86 86 86 86 86 86 86 86 86 86 86 86 86 86 86 87 87 87 88 88 88 88 88 88 88 88 88 88 88 88 88 88 88 88 88 88 88 88 88 88 88 88 88 88 88 88 88 88 88 88 88 88 88 88 88 88 88 88 88 88 88 88 88 88 88 88 88 88 88 88 88 88 88 88 88 88 88 88 88 88 88 88 88 88 88 88 88 88 88 88 88 88 88 88 88 88 88 88 88 88 88 88 88 88 88 88 88 88 88 88 88 88 88 88 88 88 88 88 88 88 88 88 88 88 88 88 88 88 88 88 88 88 88 88 88 88 88 88 87 87 87 87 87 87 87 87 87 86 87 87 87 87 87 87 87 87 87 88 88 88 88 88 88 88 88 89 89 89 89 89 89 89 89 89 89 89 89 89 90 90 90 90 90 90 90 90 90 90 90 89 89 89 89 89 89 89 89 89 89 89 89 89 89 89 89 89 89 89 89 89 89 89 89 89 89 89 89 89 89 90 90 90 90 90 90 90 90 90 90 89 89 89 89 89 90 90 90 90 90 90 90 90 90 90 90 90 90 90 90 90 90 90 90 91 91 91 91 91 91 91 91 91 90 90 90 90 90 90 90 90 90 90 90 91 91 90 91 91 91 91 91 91 91 91 91 91 91 91 91 91 90 90 90 90 90 90 90 90 90 90 90 90 90 90 90 90 90 90 90 90 90 90 90 90 90 90 90 90 90 90 90 89 89 89 89 90 90 90 90 90 90 90 90 90 90 90 90 90 90 90 90 90 90 90 90 90 90 90 90 90 90 90 90 89 89 89 89 89 89 89 89 89 89 89 89 89 89 89 88 88 88 88 88 88 88 87 87 87 86 86 85 85 85 85 84 84 83 83 82 81 81 80 80 80 80 81 81 81 81 80 80 80 80 80 80 80 80 80 79 79 78 78 77 76 76 75 75 74 73 72 72 72 71 71 70 69 69 69 70 72 74 78 81 84 86 86 86 86 86 86 86 85 85 85 85 85 85 85 85 85 85 84 84 83 82 81 80 79 79 79 79 79 79 79 78 78 78 79 79 80 80 81 81 82 82 82 82 82 81 81 81 80 79 79 78 77 77 76 75 73 71 70 69 68 69 69 70 71 72 72 73 73 73 72 72 71 71 70 69 69 68 68 68 67 67 66 65 65 64 63 63 62 62 61 61 61 61 60 60 60 59 59 59 59 58 58
