ncols 100
nrows 100
xllcorner 497392.38261041
yllcorner 4659615.6527613
cellsize 20.0
NODATA_value -9999
76.7933 79.0475 80.5431 80.3542 80.0167 80.1894 81.1133 81.7775 83.2253 84.6467 85.6181 86.4508 87.385 88.0844 88.9692 91.2633 92.1381 92.4892 93.0375 93.6219 94.4819 97.1508 100.327 103.091 105.308 105.804 104.684 103.412 105.29 105.945 104.122 100.741 98.3406 95.2975 91.3808 86.9047 82.1942 79.2503 76.3367 73.4117 71.2992 68.3586 65.6025 63.4256 61.7161 60.3875 58.5117 56.2281 54.02 52.2661 53.2242 54.9075 56.0547 56.9911 57.5317 57.8653 57.6728 56.1217 54.4983 55.4978 58.8367 61.5672 63.9289 66.7008 69.6992 72.5117 74.9817 76.5628 78.317 79.1283 80.1092 81.6047 82.7925 83.0233 82.0872 80.0667 76.978 73.2722 70.2425 67.4919 65.7311 63.3725 64.4736 65.925 66.6042 67.1458 68.3775 70.6333 71.2642 72.5167 75.1267 76.6117 76.3194 75.4667 72.9889 71.832 70.8525 69.0772 70.9286 74.1033
78.0325 80.7633 82.6992 83.5775 83.4558 83.485 83.975 83.1858 83.7142 84.9975 85.7808 86.485 87.16 87.7975 88.3925 89.59 90.7292 91.0408 91.67 92.3158 93.1642 96.0375 99.29 101.549 103.9 105.513 105.377 105.817 107.292 109.149 107.435 103.537 100.191 97.14 93.1642 89.0458 85.2175 82.3225 78.8458 75.675 73.3417 70.3908 66.8575 64.07 62.3483 60.9775 59.4192 57.475 55.82 54.5067 52.185 51.5325 52.1175 53.8575 55.555 56.4025 56.9333 55.31 53.6367 55.28 59.215 61.85 63.925 66.265 68.7508 71.49 74.355 76.7867 79.1208 80.6225 81.5617 82.6267 83.585 84.0683 83.9558 81.8675 78.7 74.2975 71.4225 67.8183 65.84 63.53 62.445 64.35 65.0675 66.0808 66.745 68.195 70.7117 72.015 73.7475 74.6383 74.5775 73.5225 71.2758 70.5758 69.8375 69.3867 70.9942 74.5925
78.8008 81.8708 84.5358 85.7967 86.4422 86.0389 85.8325 85.4108 83.7642 84.8567 85.6561 86.1928 86.9058 87.4522 88.0381 88.6167 88.7203 88.9814 89.69 90.625 92.2936 95.32 98.1256 100.7 103.297 105.394 105.828 106.157 107.596 110.241 109.978 105.509 102.14 98.9533 95.1517 91.8869 88.77 85.0933 80.9008 77.7883 75.3717 72.2731 68.0583 64.7978 62.7958 61.3342 59.6072 57.3539 55.7783 54.6125 53.1333 51.9033 50.6983 50.2503 52.9742 55.3994 56.0467 54.8025 53.0931 55.4164 59.2267 61.6147 63.4419 65.325 67.7317 70.2683 73.1033 76.3842 80.2039 82.0917 82.9142 84.0111 84.8733 85.0203 84.63 82.7183 79.39 74.7186 72.0692 68.1544 65.5864 63.6417 61.8331 63.7292 64.5475 65.0117 65.7486 66.84 70.3564 71.5356 73.1058 72.965 72.1147 71.345 69.7058 68.4655 68.1475 68.4155 70.075 74.0233
78.9267 82.2367 85.0697 86.8408 88.4383 87.6561 86.8483 86.2642 84.5097 84.3358 84.7328 84.9972 86.0683 86.8547 87.3553 87.2483 86.9914 87.2661 87.8858 89.0181 91.2997 94.585 97.505 99.8411 102.042 104.678 105.809 106.446 107.368 110.033 110.775 107.429 103.47 100.324 96.8842 93.7167 90.875 87.0708 82.6431 79.3533 76.6483 73.6833 69.6492 65.8011 62.5336 61.1075 59.655 56.6511 54.8375 54.4197 54.0242 53.1192 51.803 50.0994 50.14 53.0125 54.9186 53.8533 52.2047 55.3375 58.39 60.7133 62.4097 64.145 66.6747 69.1536 71.8075 75.0267 79.318 82.2275 83.4675 84.7797 85.9 85.8217 84.9644 83.3375 79.6633 74.8533 72.065 68.0656 65.0194 63.5992 62.2358 62.1794 64.0875 64.2344 64.8695 65.9458 68.5069 70.8564 72.2 72.1158 70.9592 70.1108 68.6389 67.4092 67.4783 67.7447 68.8495 71.1625
78.05 80.8825 83.815 86 87.185 87.2 86.1875 85.7042 84.2108 83.2625 83.9142 84.2675 84.8875 85.1492 85.0625 85.0375 85.2542 85.5342 86.03 87.205 90.1017 93.505 96.4167 98.6392 100.455 103.162 105.425 106.478 107.322 108.815 110.3 108.972 105.147 102.055 98.7258 95.7158 92.5075 88.6617 84.1467 80.3225 77.4025 74.1983 70.63 67.0033 64.04 61.8 59.7808 57.2008 56.4825 56.5558 55.2367 54.045 52.5658 50.7533 49.3775 50.51 53.4358 52.93 50.9033 54.5367 57.2475 59.4792 61.3825 63.2925 65.54 68.255 71.055 73.6342 77.0617 80.52 82.0117 83.8733 85.37 85.4625 84.925 83.1125 79.4792 75.5392 72.47 68.3633 64.455 63.2725 62.5567 61.4933 62.37 63.2675 63.9958 65.22 66.8192 69.7825 71.4725 71.1167 69.9992 69.3375 68.0967 66.935 66.8675 67.5583 68.6783 69.9025
76.5692 79.5006 81.9783 84.3675 85.5622 85.8592 85.0183 83.5678 82.6078 81.8683 82.0081 83.4739 83.8067 83.4506 83.1586 83.3142 83.7975 84.4258 85.07 86.2753 89.7425 92.3792 94.8561 96.9525 99.0808 101.57 104.341 106.38 107.461 108.377 109.55 109.72 107.018 104.161 101.005 97.865 94.0817 89.8192 84.9058 80.75 77.6025 74.3467 70.7858 67.8875 64.7158 63.0008 61.8789 60.7158 59.1608 57.8142 56.17 54.65 52.9869 51.2044 49.3067 49.3644 51.9989 51.8567 50.645 53.5844 55.9592 58.1811 60.3845 62.39 64.3664 67.1217 69.9192 72.043 74.8858 78.4583 80.3572 82.3781 84.2858 84.7506 84.3314 82.8792 80.9992 76.2292 72.0958 68.932 64.7378 63.85 62.9081 61.8378 61.3525 62.295 63.2292 64.6108 66.2092 68.6364 70.695 70.0272 69.0753 68.1517 67.0683 66.2108 66.1025 67.397 68.935 69.4633
75.3217 78.1619 80.4989 82.6108 84.07 84.3919 82.8492 81.33 80.6981 80.2775 80.0542 80.4922 81.5558 81.8347 81.6131 82.0342 82.5469 83.3372 84.2542 85.7864 88.2269 90.9533 93.0506 94.9878 97.89 100.277 102.642 105.522 107.454 108.393 109.236 109.122 107.655 106.014 103.233 99.4258 95.3267 90.6289 85.6086 80.8625 77.4872 74.24 70.9842 68.2922 65.6583 65.1175 64.4656 63.3758 60.8017 58.5664 56.8297 55.1392 53.2889 51.3939 49.4708 48.7325 50.4561 49.5975 50.4486 52.8297 54.8708 57.0703 59.3233 61.3808 63.2439 65.0317 67.4208 69.9558 72.9392 76.0283 78.6106 80.3969 82.48 82.9631 82.9097 82.4342 81.3892 78.2256 73.0858 70.0544 66.2011 63.9575 62.5667 61.1203 60.3233 61.4597 62.4147 63.4342 64.48 66.1058 68.0175 68.8292 68.205 66.9367 65.9003 65.4728 65.3558 66.5986 67.6831 67.5467
74.1475 77.2825 80.0392 81.7875 82.8983 82.4592 81.1675 79.6925 79.0817 78.9325 78.8375 78.9508 79.5375 80.5117 80.6408 80.9325 81.4117 82.2525 83.425 85.1475 86.9525 89.2 92.3267 94.455 96.8875 98.9742 101.001 103.472 106.828 108.352 109.125 109.49 109.029 107.83 104.793 100.483 95.88 90.3275 86.4683 81.7825 77.1092 74.2025 71.1725 68.5675 67.6917 67.4275 67.1008 65.4417 62.2425 59.0933 57.2042 55.415 53.5967 51.7325 49.8225 48.0375 48.5208 48.5 50.2125 52.1683 54.015 56.12 58.2467 60.165 61.75 63.2742 65.04 67.6767 70.68 73.6275 76.3625 78.1842 79.3625 80.0992 80.7925 81.395 81.2725 79.725 74.945 70.6775 67.5258 63.435 61.7275 60.8292 60.24 60.3717 61.1975 62.085 62.9683 64.5708 66.07 67.415 67.1258 65.815 64.9542 64.7267 64.57 65.2842 66.5367 66.5825
73.6442 77.1239 79.9378 81.2642 82.0933 81.3319 79.9817 78.3661 77.6542 77.4 77.4667 77.7719 78.5233 79.3067 79.6881 79.96 80.4945 81.4081 84.2125 85.585 86.91 88.7258 91.9014 94.9153 96.9308 98.8047 100.566 102.594 104.85 108.301 109.131 109.838 109.974 109.258 106.077 100.853 95.6875 89.7206 86.2669 82.2025 77.1881 74.0428 71.0608 69.8719 69.3764 69.7375 69.307 67.1519 63.6292 59.7286 57.6633 56.12 54.3794 52.5267 50.6825 48.3828 47.2814 48.065 49.5083 51.1514 53.0633 55.0628 57.0492 58.6367 60.0506 61.693 63.4883 65.4975 68.2847 71.2142 74.1283 76.1214 76.6492 77.6158 78.6419 79.8517 80.5419 79.4661 75.5958 71.5103 68.27 63.7917 61.8661 60.7617 59.7233 59.6586 60.4886 61.3692 62.2844 63.7469 65.0142 66.205 65.9508 64.9433 64.2706 63.9833 63.4383 63.2197 65.3611 65.6933
73.4075 77.1544 79.6381 80.7317 81.4989 80.4594 78.8258 77.3075 75.943 75.6967 76.2253 76.4408 77.1842 77.9414 78.5653 79.0008 79.66 81.528 84.6325 86.6328 87.7478 89.5858 91.5628 94.5278 96.765 98.7106 100.353 102.278 104.214 107.408 109.176 110.129 110.638 109.507 106.312 101.043 95.5117 90.1011 85.8539 81.5525 77.2872 73.9119 72.1425 71.6439 72.1606 72.6217 71.5647 68.4164 64.385 60.3369 58.4411 56.9808 55.3428 53.5089 51.5525 49.0572 46.8825 47.4167 48.5953 50.0247 51.8867 53.8375 55.775 57.3367 58.8622 60.6108 62.4367 64.0389 66.3356 69.3267 72.115 73.8711 74.7967 75.7194 76.9403 78.5767 79.8881 79.2508 76.015 71.8417 68.5222 64.8617 62.3803 61.2358 59.4742 58.9806 59.868 60.7567 61.5967 62.6511 63.7767 65.4703 65.5628 64.6 63.7511 63.2328 62.75 63.0075 63.7275 63.9975
72.415 76.7075 79.28 80.07 80.56 79.4808 77.63 75.4458 74.6383 74.745 74.985 75.0867 75.83 76.5483 77.2583 78.08 79.335 81.7442 84.4775 86.8358 88.72 90.5875 92.8758 94.9125 96.595 98.5317 100.311 102.233 104.142 105.797 109.073 110.648 111.466 110.123 106.408 100.663 95.3 90.4367 85.2333 81.145 77.6233 74.285 74.3725 75.0475 75.8108 75.68 73.7742 69.4292 64.7175 61.2517 59.0508 57.58 56.18 54.4258 52.1175 49.7175 47.2733 46.82 47.7458 48.9892 50.3125 52.2067 54.4658 56.305 57.9942 59.7183 61.365 63.1367 65.3942 68.195 70.5167 71.79 72.665 73.9108 75.6167 77.355 78.4142 77.765 75.76 72.3675 68.855 65.7 62.4742 61.1183 59.7725 58.5392 59.3558 60.35 61.1358 62.1233 63.1125 64.9267 64.9125 63.98 63.0058 62.3167 61.7 62.0917 62.2867 61.905
70.8767 74.9786 77.8483 78.9042 78.5961 77.3869 75.755 74.0425 73.5739 73.5642 73.6711 73.7617 74.8217 75.5886 75.9417 77.4342 79.3683 81.5019 84.0933 86.3236 88.1853 90.4517 93.5319 96.4764 98.3125 99.3861 100.409 101.796 103.653 105.364 108.478 110.901 111.828 110.726 106.306 100.759 95.4675 90.4375 84.9364 81.7958 78.565 75.2872 76.99 78.7289 79.5931 78.3842 75.8239 71.3794 66.6167 62.765 59.6397 58.1917 56.7228 55.2345 53.0992 50.9722 48.3753 46.3317 47.145 47.9203 48.8217 50.3314 52.7511 55.1275 56.8581 58.5647 60.1475 61.9956 64.175 66.8592 68.9683 70.0533 70.3917 71.3772 74.1403 76.05 76.7806 76.4708 75.2008 72.8503 69.3142 65.4425 61.8264 60.3286 59.4333 58.0436 58.7992 59.8392 60.6569 61.5608 62.315 63.7344 64.2692 63.4517 61.8953 61.4269 60.8083 61.355 61.5014 60.9625
69.4183 72.3878 75.3883 76.5033 75.96 75.4517 73.7683 72.6711 72.3417 72.2925 72.3669 72.5589 73.4908 73.9783 74.6417 77.2508 79.5503 81.5222 83.2942 85.412 87.2225 89.3167 92.265 95.7067 99.2933 100.456 100.906 101.475 102.869 104.632 107.422 110.66 111.761 110.846 106.379 100.827 95.7775 90.2028 85.3358 82.1592 78.5922 77.3408 79.7558 81.2056 81.3022 79.7875 77.0158 73.1947 68.5692 64.3992 60.7692 58.7625 57.2906 55.7828 53.935 51.8622 49.6842 46.725 45.9922 46.1939 47.2167 48.8325 51.2756 53.7433 55.6208 57.4733 58.9783 60.7361 63.0269 65.6292 67.6008 68.5739 69.3167 69.9289 72.6547 75.1108 74.9503 74.5767 74.0242 73.0967 69.74 65.7375 61.8433 59.5608 58.8983 57.3275 58.0119 58.79 59.8056 60.4108 61.3358 61.6497 61.275 62.3633 61.7392 60.9525 60.2117 60.6417 60.9678 60.8883
68.38 70.1742 72.2808 73.245 73.83 73.5117 72.1325 71.3617 71.1192 71.03 71.0825 71.5017 72.0025 72.5658 74.8367 77.405 79.9275 81.2358 82.7925 84.3825 85.9908 88.035 90.9167 94.1383 97.4275 99.6833 100.7 100.793 101.881 103.844 106.323 109.993 111.272 110.838 106.562 100.87 96.32 90.6742 86.2417 82.265 78.155 79.5633 81.8475 83.3108 83.1567 81.0275 78.0192 74.7933 70.2425 65.8375 62.1083 59.5325 57.9067 56.2783 54.3975 52.3458 50.2792 48.0375 46.2125 45.315 45.815 48.1733 50.7458 52.9525 54.6592 56.7375 58.83 60.4267 62.6625 64.7225 65.945 66.7525 67.9275 69.0775 70.465 73.795 73.225 72.4 71.855 71.3642 69.7642 65.96 61.785 59.015 58.38 56.5367 56.7533 57.045 57.8825 59.3267 61.7125 63.6733 62.7617 62.2575 61.6783 60.7442 59.7575 59.9458 60.0067 59.8825
66.95 68.3189 69.7608 71.0033 71.625 71.3189 70.4425 69.905 69.6369 69.6842 69.8356 70.0042 70.51 72.6061 75.6789 77.9883 80.0714 81.3119 82.2867 83.2531 84.6675 86.5242 89.2503 92.2464 95.1825 97.8158 99.2992 99.5975 100.896 102.376 104.594 108.698 110.404 110.2 106.794 100.875 96.2208 90.74 86.0239 82.0875 79.4206 81.6719 84.035 85.6522 85.8292 82.8758 78.928 75.7475 71.4075 66.8689 63.2405 60.415 58.3922 56.4197 54.6683 52.6822 50.6408 49.2375 47.8092 46.6028 45.1008 47.285 50.0508 52.0992 54.0572 56.2794 58.7983 61.2047 62.6036 63.3742 64.1419 64.7547 66.1925 68.1483 69.5461 72.0292 71.6067 70.49 69.8942 69.6567 68.5189 65.5367 61.3364 58.4178 57.495 55.8625 55.4364 56.4292 58.0469 60.4481 63.6642 66.3289 64.3344 61.5558 61.1106 60.1261 58.9325 59.2514 59.1678 58.7767
65.0508 66.7183 67.9836 68.8992 69.3272 69.4742 68.8842 68.2872 68.1205 68.0358 67.39 67.6389 69.855 72.5808 75.368 77.2025 78.7967 80.2144 81.215 82.2517 83.4711 85.165 87.6158 90.2475 93.0083 95.4692 97.165 97.9883 99.6145 101.602 103.694 106.465 108.707 109.043 106.674 100.838 96.0008 90.7767 86.1608 82.615 82.3039 84.5072 86.7517 88.1225 87.5092 84.2433 79.5914 76.0633 72.1517 68.2275 64.4817 61.355 58.82 56.5819 54.8333 52.9653 50.9822 49.8342 48.5819 47.2114 44.5742 45.8008 48.5881 50.9908 53.2631 55.7072 58.1767 60.3169 61.0303 61.7608 62.5386 63.3233 64.7142 67.2883 69.1608 70.7042 69.7155 68.0406 67.7408 68.2217 65.7155 64.4267 60.8267 57.2092 55.465 54.4917 54.8833 56.6192 58.5078 60.6547 63.5517 64.8444 63.3683 61.0533 60.373 58.8158 57.6175 58.29 58.3319 57.8633
63.3575 64.9133 66.3108 66.9025 67.0733 67.4217 66.8125 66.0408 65.0592 64.24 64.1417 66.4275 69.5275 72.2442 74.2075 75.8225 77.3958 78.7958 80.1075 81.4025 82.6975 84.24 86.5283 88.76 91.29 93.8408 95.5625 96.585 98.2283 100.738 102.517 104.784 106.51 107.472 106.356 100.81 95.6475 91.7225 87.5425 84.82 85.5225 87.8033 89.5875 90.0342 88.48 85.015 79.8667 76.1808 72.99 70.1492 66.5683 62.7675 59.5458 57.0575 54.9875 52.8342 50.9458 49.6375 48.5125 47.1392 44.4 44.7317 47.05 49.8175 52.31 54.6517 56.6925 58.2167 59.225 60.23 61.1642 62.2567 63.87 66.3292 69.3158 69.34 67.3433 66.085 65.1925 65.1792 64.0825 63.2725 59.8875 55.8242 54.975 53.5092 54.8583 56.74 58.63 60.9075 63.35 63.0217 61.2592 60.545 59.535 57.5892 56.715 57.3492 57.3475 56.9075
62.0183 62.9764 64.4783 65.2892 65.4958 65.2081 63.7658 62.3319 61.6478 62.0025 63.5683 66.1467 69.1708 71.4672 73.0483 74.5425 76.0061 77.5328 79.1792 80.7144 82.135 83.7817 85.9686 88.1253 90.4258 92.5542 94.0142 95.4192 97.2075 99.787 101.362 102.802 104.618 105.857 105.433 101.069 96.0275 92.4461 89.4992 87.2333 87.7147 89.5536 90.7692 91.6139 89.3203 85.8867 80.7433 77.0317 74.1617 72.2056 69.4731 64.7925 60.5675 57.8108 55.1125 52.3878 50.6358 49.4783 48.4653 47.1406 44.9175 44.3819 45.8758 48.7608 51.1569 53.0933 54.7958 56.315 57.3919 58.5325 59.7411 61.2483 63.455 66.6422 69.9597 68.9592 66.553 65.3017 63.3817 61.4603 61.1244 60.71 58.1094 55.9128 54.4183 52.8225 54.7583 56.3983 58.7772 60.9228 62.6317 61.7642 60.6375 59.7533 57.99 55.9847 56.1875 56.5639 56.7033 56.0433
60.8425 61.6033 62.3294 62.8775 63.4658 62.1825 60.1133 59.8344 60.1294 61.66 63.5003 65.8328 68.4725 70.5886 72.2036 73.4733 75.0222 76.7511 78.4808 80.0703 81.3742 83.1225 85.3625 87.6653 89.8183 91.6394 93.4931 95.1308 96.6367 98.8717 99.9667 101.509 102.769 104.207 104.181 102.157 97.2483 93.6155 91.0622 89.4492 89.5764 90.0669 91.6683 93.2919 91.0619 87.0583 83.2033 80.9614 80.4117 76.0217 72.175 67.5008 62.4225 58.5708 55.7308 52.2214 50.7506 49.7358 48.6767 47.5006 45.6758 44.1594 44.8119 46.9508 49.2369 51.2683 53.1225 54.5364 55.4761 56.6058 58.2564 61.0669 64.3075 66.4883 70.2411 69.0942 66.168 64.5186 62.4408 60.4019 59.4481 58.3633 57.43 54.9425 53.4775 52.2528 54.2503 55.8283 57.3022 61.1753 61.8358 60.6464 59.8386 58.235 56.8828 54.3586 55.3708 56.0095 56.3253 55.17
59.7425 60.4225 60.1617 60.4475 59.9708 59.7275 59.585 59.6758 60.2692 62.765 64.4525 66.3375 68.065 70.0633 71.63 73.0725 74.5192 76.34 77.9275 79.3358 80.61 82.4625 84.8733 87.1308 89.3375 91.69 94.0058 95.4 96.2567 97.4392 98.9525 100.274 101.422 103.082 103.147 102.249 99.2775 95.1808 92.3492 90.7425 90.9067 91.2758 93.305 95.0675 93.4417 88.97 86.0067 83.4792 82.5675 81.1892 75.8317 70.335 64.7133 59.535 56.445 52.755 51.1017 49.965 48.7075 47.1517 45.4675 44.4292 43.6725 44.275 46.6192 49.6242 51.65 52.5842 54.0208 55.5725 57.7075 60.9392 64.61 66.4433 70.2158 69.63 65.865 63.7133 61.59 59.8167 58.8992 58.075 56.9425 54.3525 52.9225 51.5383 53.9958 55.285 57.6325 60.7908 60.8675 59.9108 58.9025 57.2625 56.0808 53.65 54.5025 54.855 54.9542 53.7525
57.455 57.9528 58.3231 58.8592 59.2258 59.2031 59.4525 59.8436 62.6339 65.3825 66.9756 68.795 70.1158 70.5714 71.6508 73.1633 74.6758 75.9539 77.1992 78.4833 79.7389 81.915 84.6397 86.8783 88.9692 91.0864 93.3311 95.0525 95.9419 96.8622 98.2175 99.2978 100.149 101.595 102.134 102.042 100.632 96.7086 93.6305 92.5025 93.0925 94.0958 95.6875 96.9667 96.1117 91.4442 88.2419 85.3442 83.8067 81.9053 78.6633 72.29 66.8 61.138 57.005 53.2719 51.3958 50.1858 48.7995 47.3389 45.88 44.5642 43.1761 42.3283 44.1917 47.5439 50.2692 51.7514 53.5225 55.3142 57.2239 60.685 64.3917 66.1219 70.2586 69.9908 65.7689 63.165 60.9767 59.4911 58.5961 57.77 55.0508 53.8 52.2717 50.9489 53.6164 54.8208 57.0517 60.255 60.2158 59.0572 57.5372 56.6025 55.7775 53.1914 53.8883 53.3269 52.2275 53.7517
55.6825 56.4342 57.5617 58.1542 58.58 59.3236 59.8717 61.8989 65.5144 67.1383 68.9275 70.8808 72.5917 72.6539 72.2825 73.24 74.7281 75.9375 77.0692 78.2022 79.4669 81.7933 84.4406 86.5386 88.3267 89.9494 91.9978 93.6792 94.6967 95.6694 97.0483 98.3258 99.3845 100.166 100.892 100.949 100.431 97.9769 95.3311 94.69 95.1211 96.3347 97.8508 99.2128 98.5917 94.7142 90.6006 87.1717 83.8833 81.5631 78.2875 73.0067 68.2425 62.5158 57.505 53.7442 51.64 50.34 49.1164 47.8217 46.3817 44.7847 42.8189 41.6908 41.8947 44.8539 49.1492 51.0972 53.0167 54.9825 56.7372 60.2356 63.8792 65.8825 70.425 69.6467 65.653 62.8525 60.515 59.0497 58.1567 57.1783 54.1694 53.1694 51.6817 49.9536 52.8122 54.2683 56.1161 59.4505 59.2908 58.1075 56.6683 55.9242 55.1772 52.815 53.1942 51.8858 52.5117 55.8517
54.8075 55.3283 56.5367 57.59 58.4808 59.5617 61.3325 64.3617 66.52 68.2725 70.0125 72.0633 73.7325 74.3558 74.1292 74.02 74.8275 75.9167 77.01 78.1033 79.3358 81.705 84.1492 86.105 87.72 89.235 90.7958 91.8475 92.7908 94.4225 95.7975 96.8308 97.6217 98.5125 99.5742 99.8025 99.615 98.5317 96.6475 95.895 96.2925 97.7508 99.2975 100.515 99.805 96.6 92.3825 88.8258 84.0025 81.1583 77.2667 72.835 68.7533 63.6075 57.9425 54.1858 51.8667 50.3225 49.1742 48.0033 46.51 44.8333 42.99 41.48 41.9658 44.7808 48.91 50.8308 52.7283 54.6375 56.8008 60.0217 63.2075 66.2308 69.855 69.2375 65.5408 62.5183 60.015 58.5908 57.4025 55.64 53.3192 52.4867 50.665 49.6558 52.1875 53.6675 55.3808 57.2283 57.7975 56.9958 55.6775 54.9 54.1767 52.1692 52.0825 52.0833 55.8 57.4175
54.5658 55.1322 56.0686 57.3008 58.5969 60.4692 63.2725 65.4814 67.3978 69.2525 71.1114 72.8167 74.3025 75.005 75.1133 75.1417 75.3061 75.943 77.0008 78.1267 79.2492 81.7208 84.0633 85.9547 87.5217 89.0886 90.3828 91.2367 92.1003 93.6408 95.0883 95.572 95.9353 96.5675 97.0622 98.8078 99.0325 98.8114 97.7847 97.2375 97.3486 98.3822 99.6983 100.601 100.417 97.8358 93.8825 89.7369 84.2925 80.6786 76.6806 72.1633 68.1281 63.5853 58.48 54.5594 52.1947 50.4175 49.2028 47.9767 46.1342 44.1375 42.5347 41.5775 42.2453 45.3092 48.2708 50.5242 52.4442 54.405 56.8353 60.0758 62.6067 66.3972 69.1419 68.0658 64.6508 61.8203 59.4775 57.9486 56.6331 54.3808 52.4383 51.5025 49.04 49.7275 51.7517 53.175 55.1108 56.3158 57.1542 56.205 54.3255 53.6342 52.8872 51.7678 51.4708 54.8489 57.5592 59.275
54.745 55.4644 56.3055 57.65 59.1403 61.7408 64.5683 66.2389 68.075 69.7375 71.4403 73.3967 74.8008 75.3258 75.7642 75.8733 75.7228 76.2431 77.0283 78.3692 80.1242 81.9883 84.1164 86.0936 87.7575 89.4325 90.3406 90.9267 91.4905 93.22 94.7042 95.0731 95.3281 95.6042 96.0844 97.2928 98.1967 98.7644 99.155 99.01 98.7344 99.0069 99.54 99.9911 100.151 98.3625 94.5708 89.655 84.9608 80.6417 76.5361 71.6725 67.4742 63.8086 59.2175 54.9181 52.3944 50.5058 49.3797 48.04 46.4842 44.1311 42.4731 41.6142 42.8706 44.7114 47.4217 49.8875 51.9056 53.985 56.4422 60.3089 62.5392 66.0083 68.335 66.4717 63.1333 61.145 58.8933 57.2361 55.7742 53.5225 51.682 50.5222 48.2375 49.6111 51.2339 53.1383 54.8539 56.0908 55.5192 53.9822 53.1842 52.6233 52.15 51.57 53.05 56.8064 59.28 60.8833
54.9325 55.7175 56.5367 58.01 59.5583 61.4875 64.865 67.2925 68.9983 70.0775 71.9942 73.985 75.18 75.6292 76.4508 76.525 76.1242 76.555 78.0775 79.9417 81.5858 83.1875 85.0058 86.6533 88.1525 89.6642 90.3967 90.8525 91.3167 93.2925 94.2175 94.4883 94.6758 94.8875 95.2575 95.9117 96.78 98.0775 100.434 100.487 99.8033 99.4033 99.225 99.2217 98.8875 97.5375 94.8167 89.8775 85.465 80.4067 75.7692 71.4475 67.7175 64.2117 59.89 55.2392 51.7467 50.5325 49.6308 48.2283 46.9125 45.0133 42.5042 41.485 43.0283 44.7592 46.9975 49.1483 51.1592 53.3925 55.73 59.8442 62.1175 65.7242 67.15 64.8 62.0042 60.2383 58.0775 56.2958 54.7617 52.81 50.9708 49.2958 48.0925 49.6975 51.255 52.7025 53.9208 54.8942 53.805 52.2367 52.2542 51.8425 51.035 50.6033 54.4625 57.905 60.9025 62.08
54.7242 55.6872 56.6761 58.1825 59.825 61.2425 64.2283 68.1794 70.7967 71.5758 73.0036 74.5025 75.1425 75.3575 76.3195 76.5475 76.3144 77.2058 79.4392 81.4808 83.2225 84.7033 86.1731 87.9214 89.1933 89.8958 90.8736 91.3825 91.7497 93.7678 93.8767 93.9314 94.0444 94.2458 94.4903 94.8625 95.7217 96.9767 99.8397 100.953 100.124 99.3594 98.3683 97.9342 97.9694 97.025 94.4111 89.4819 85.59 80.4133 75.2397 71.7433 68.4108 64.7258 60.6958 55.7436 52.6433 51.2258 49.8306 48.3764 46.995 45.7581 42.8867 41.4725 42.9361 44.6986 46.5525 48.2606 50.4725 52.6292 54.9567 58.7808 61.7167 65.0803 65.9872 63.2575 61.1042 59.3414 56.9992 55.2167 53.9853 51.885 50.1542 48.7417 47.7642 49.9533 50.9192 51.7583 53.2725 53.7211 51.8033 50.4897 50.4742 49.8075 49.8381 51.8922 55.8333 59.2481 61.6778 62.6017
54.8133 55.6661 56.7469 58.1783 59.8833 61.2892 63.5208 67.3956 70.895 73.4667 74.4911 74.4886 74.6508 74.895 75.4228 76.0575 76.6339 77.7167 79.9567 82.1383 84.1678 85.5258 87.0922 88.8908 89.9833 90.2383 91.347 92.1558 92.6467 93.91 94.1375 94.1011 93.7483 93.5708 93.778 94.1089 94.72 95.9797 98.7036 100.342 99.9117 98.7294 97.6058 96.4933 96.0772 95.165 92.5861 88.6678 85.5317 81.1622 76.2464 72.5658 69.3269 65.6233 61.7942 57.0358 52.8703 51.3067 49.7833 48.4525 47.0775 45.7789 42.6406 41.6383 42.9681 44.5 45.8583 47.0722 49.2555 51.4125 54.1014 57.6461 60.8025 63.3811 64.1669 61.62 60.0842 58.2789 56.1467 54.5881 53.2925 50.8067 49.5653 48.1906 47.6117 49.4272 49.9972 50.71 51.3394 50.7483 50.0725 49.9383 49.4894 50.1917 52.9508 55.0272 57.4058 60.7483 61.8906 62.9825
56.0175 56.3817 56.9775 58.0475 59.8592 61.4942 63.12 66.0833 70.2225 74.02 75.3467 74.655 73.225 73.0492 74.4567 75.74 76.9483 78.25 79.9975 82.295 84.0592 85.0675 86.1883 87.9317 89.315 90.3608 91.7392 92.5975 93.2183 94.4492 94.465 93.7225 92.8217 92.3675 92.3508 92.9042 93.9825 94.8025 97.0158 99.1375 99.4175 98.3233 97.115 95.9192 94.4167 92.465 90.0258 87.2142 84.7275 81.9075 78.4567 73.78 70.3783 66.7717 62.9025 58.2708 53.6642 51.5225 49.6267 48.3542 47.075 45.8833 42.6717 41.2775 42.025 44.1342 45.21 46.0775 47.8433 49.9375 53.4525 56.8283 59.445 61.4617 61.3333 60.5 58.7458 56.8808 55.1425 53.8042 52.52 49.95 48.7508 47.695 47.17 48.2492 48.96 49.36 49.1808 48.9975 49.12 48.705 48.5175 50.9575 53.9642 56.4667 59.3525 61.6467 62.4608 63.3875
58.58 59.1292 59.5219 59.8875 60.4975 61.6714 62.9858 65.2281 68.6556 72.6567 75.1106 73.6644 72.0575 71.6131 73.6669 75.7808 77.6572 79.5181 80.6383 82.2572 83.4089 84.6425 85.5872 86.8669 88.4925 90.1972 91.8439 92.885 93.4983 94.8342 94.2092 92.88 92.1381 91.4433 91.3431 91.7633 92.7325 93.7239 95.6392 97.8625 98.6581 97.9353 96.6617 95.3117 92.9117 90.54 87.5336 85.455 83.5317 81.7167 79.5419 75.1108 70.8158 67.5339 63.815 58.7919 54.9303 51.6008 49.57 48.3086 47.0308 45.9558 43.8986 40.7667 41.0653 43.553 44.7367 45.5092 46.6631 49.5042 53.2314 55.5314 57.8667 59.4756 59.8553 59.6258 57.5228 55.1369 53.8092 52.6245 51.2892 49.135 47.6517 46.1897 45.5992 46.8503 47.77 48.0392 47.7681 47.8272 48.0342 47.3536 47.7275 51.1192 55.0872 57.2478 59.8575 62.0839 63.0478 63.9633
60.4933 59.9831 60.1475 60.5308 60.9406 62.08 63.3333 64.713 67.5297 69.9208 72.5231 71.5219 70.6008 70.4742 72.1036 74.7142 77.1053 79.91 80.7208 82.0053 82.955 83.9292 85.0172 86.1067 87.7142 89.5481 91.635 92.0375 92.8275 93.5905 93.8392 92.7072 91.9972 91.2667 91.0167 91.3405 92.0033 92.8008 94.22 96.7975 98.0125 97.1561 95.5342 93.2497 89.5381 86.6175 84.2831 82.5547 81.3842 80.1956 79.3356 76.2667 71.1061 66.9861 63.5092 58.7864 54.9989 51.87 49.4355 48.1183 46.9842 45.8931 44.7792 41.5042 40.3472 41.265 43.7775 44.7567 45.7956 49.1508 51.8755 54.1895 56.2825 57.9019 58.2342 57.82 56.3197 53.688 53.025 52.4828 49.6125 48.0725 46.2936 44.2931 44.2217 45.4628 46.7531 46.9767 46.3336 46.4931 46.8467 46.9781 49.0003 51.9792 56.4594 57.3675 60.0508 62.5411 63.6789 64.6367
62.175 60.9092 60.475 60.8175 61.3558 62.5208 63.76 64.9367 67.1183 68.41 69.4642 69.8558 69.5575 69.3425 69.96 72.06 74.7642 78.4133 80.5975 81.5483 82.47 83.0825 83.9492 84.9258 86.3425 87.8467 89.1208 90.185 90.9742 91.6375 93.34 92.7967 91.8767 90.6425 89.8542 90.0558 90.415 90.9033 92.3217 95.195 97.1142 96.1758 93.1475 88.4233 85.2617 82.705 81.0483 79.5125 78.53 77.5767 77.2783 75.9375 71.5092 66.7942 63.47 59.1625 55.0658 52.6675 49.6275 48.1858 46.8875 45.6142 44.6817 42.72 39.5792 40.5575 42.2775 43.735 44.94 48.115 50.015 53.36 54.865 56.3658 56.5975 55.9975 54.5517 52.97 52.3225 51.3083 48.5067 47.145 45.0375 43.1967 43.6275 44.6208 45.4617 45.285 45.5583 46.1608 46.815 48.4233 51.0358 55.17 57.0542 57.555 60.465 63.0958 64.2475 65.2075
63.5692 62.4131 61.6747 61.5958 61.7572 62.8547 64.0492 65.1033 66.6195 67.7158 68.39 68.7883 68.56 68.4122 68.5095 69.8058 72.5022 76.2458 79.0242 80.2025 81.1114 81.7775 82.4283 83.4589 84.5083 85.7356 87.1692 88.195 89.2 89.9761 91.5742 91.9222 91.6047 89.6142 88.7986 88.5378 88.7392 89.2586 90.5011 93.3717 95.995 95.1817 91.4108 87.4803 83.7131 81.0175 78.6261 76.1883 75.1758 74.6703 75.1267 74.9917 71.7525 67.0772 63.6475 59.7678 55.8883 52.6567 51.1764 48.1631 46.7075 45.3075 44.3105 43.0192 39.8764 39.5556 41.2358 42.8272 44.4969 46.9583 49.2433 51.6847 53.2392 54.4881 54.9136 54.5792 53.0142 52.2964 51.6533 49.1353 47.8717 46.205 44.2717 42.5503 44.0208 45.6997 46.0786 46.1725 46.8664 47.6856 48.75 50.07 54.9256 56.7108 57.3767 57.9619 60.4833 63.0144 64.4675 65.6242
64.6867 63.8275 62.7733 62.355 62.2325 63.0589 64.1683 65.2639 65.9672 66.92 67.4922 68.1114 67.9625 67.8414 67.9805 68.3858 69.8911 73.7981 76.7292 78.1256 79.2172 80.1183 80.8611 81.6067 82.6667 83.8211 85.0356 85.9058 86.4206 87.1872 88.8825 89.7403 90.8025 89.5075 88.1347 87.722 87.9075 88.3556 88.4969 91.3183 94.5231 94.4861 90.8908 87.7081 82.6908 79.26 75.9153 73.7811 72.6742 71.8478 72.5625 73.6525 71.4453 67.3655 63.8608 60.7505 57.1153 53.115 51.4564 48.553 46.7308 45.1017 43.9633 42.9775 40.3444 38.4181 39.615 41.4772 43.7219 46.1075 48.8028 51.1428 52.0817 53.1233 53.7814 53.37 51.9544 51.3386 50.5242 48.0944 46.9278 45.28 43.135 41.7436 43.7433 45.7583 46.5294 47.0483 47.8158 48.62 50.4617 53.8408 56.2311 56.7325 57.3561 58.1197 60.1683 61.8447 64.1886 65.3942
64.9025 64.6208 63.5 63.0075 62.9317 63.4358 64.3925 65.4033 65.9658 66.455 66.9108 67.1692 67.3475 67.3758 67.4492 67.58 68.2817 71.04 74.3375 75.935 77.02 77.8925 78.8608 79.6542 80.8625 82.0542 83.0133 83.7975 84.2025 84.9425 86.2625 87.6158 89.5033 89.0125 87.5758 86.9625 86.835 86.7825 87.4075 89.46 93.0708 94.3033 90.9875 87.9342 82.8558 78.1225 74.5475 72.4817 70.82 69.825 70.0342 71.265 70.3458 67.215 64.25 61.4767 58.375 54.2175 51.4975 49.8725 46.9025 45.2658 43.8283 42.425 40.7258 39.0325 38.605 40.3608 42.4383 44.7825 47.9392 49.7642 50.7275 51.4117 52.2575 51.8475 50.9958 50.5242 48.855 47.1942 46.0742 44.4975 42.025 41.2475 43.7525 45.7408 46.6667 47.755 48.7767 49.8342 51.93 54.6883 55.905 56.61 57.3442 58.255 60.065 61.2208 63.635 64.6625
64.3433 64.8572 64.1058 63.6475 63.6642 63.8336 64.175 65.0692 65.8131 66.0942 66.4253 66.6145 66.6908 66.6756 66.64 66.8867 67.7167 69.0514 71.2292 73.0625 74.6589 75.5333 76.5564 78.0642 79.0333 80.2775 80.8717 81.2683 81.5469 82.495 84.2342 85.558 87.1458 88.5592 86.9919 85.8086 85.7167 85.6789 86.1222 87.8475 91.3408 93.8067 91.0008 88.0228 83.1736 77.6892 73.8242 71.5878 69.5158 68.1911 68.1044 68.9692 69.3103 66.9617 64.7225 61.9444 59.3542 55.5242 51.7969 49.8447 46.8492 45.4175 43.9031 42.2433 40.5906 39.0692 38.1408 38.8097 40.7742 43.4575 46.9769 48.4758 49.6483 50.375 50.7725 50.7583 50.3928 49.6347 47.365 46.1717 45.2719 43.3275 40.7414 42.007 44.6783 45.8567 47.015 49.02 49.8583 51.1247 52.615 54.7817 55.8442 56.3917 57.2156 58.3195 59.9408 60.6122 62.9245 64.06
63.555 64.4897 64.17 63.9425 63.4025 63.0814 63.4 64.3714 65.4122 65.7125 65.9197 65.9347 65.9483 65.8856 65.8208 66.095 66.9844 68.505 69.9075 71.3267 72.7572 73.78 75.3847 76.943 77.715 78.9022 79.1297 79.2075 79.5533 80.5664 81.8217 83.9047 86.725 89.8133 87.6614 84.9225 84.6917 84.7053 85.055 86.5408 89.9767 92.9644 90.6667 87.3008 82.9789 77.76 73.5883 70.5753 67.7092 66.7986 66.5281 66.7608 67.8783 66.7625 65.27 62.6636 60.1125 56.1867 52.072 49.8806 46.62 45.4178 44.0156 42.2992 40.5814 39.1622 37.8942 38.1636 39.0478 42.1317 45.7711 47.4844 49 49.8669 50.0675 50.0742 49.6572 48.7733 46.3567 45.3344 43.7989 41.2742 40.9814 44.0572 44.8967 45.7528 47.415 50.3133 51.0908 51.7683 52.5808 54.6211 55.5106 56.165 56.9917 57.9403 59.4958 59.9736 62.1014 63.0917
63.2075 64.7517 64.4933 63.7125 62.5567 61.91 62.13 62.5833 63.9525 64.9725 65.1592 65.0767 65.11 65.0642 64.8475 64.93 65.5625 66.8642 68.35 70.3442 73.4175 75.1975 76.1983 77.0542 76.9675 77.2267 77.18 77.15 77.5825 78.8208 80.1625 81.8292 84.1842 87.4975 86.9358 84.0817 83.91 83.955 84.2267 85.275 88.265 91.6267 90.2775 87.2242 82.94 77.7725 73.5008 69.4258 66.525 65.6075 64.9983 65.0025 65.5567 65.9767 65.2475 63.1308 60.165 56.41 52.3883 49.9642 47.55 45.4025 44.0833 42.36 40.7325 39.62 38.0275 37.76 38.4642 40.915 44.495 46.5083 48.48 49.6975 49.7492 49.49 48.8558 47.3933 45.6325 44.1925 42.3158 40.36 42.6042 43.795 44.7925 45.7275 49.0367 50.6375 51.3883 51.9117 52.6925 53.3192 55.1625 55.85 56.5792 57.305 58.3825 59.0017 60.135 61.67
62.8683 64.9497 64.7167 63.4658 61.6942 60.7247 60.8017 60.9564 61.8997 63.8158 64.0958 63.6172 63.6467 63.4831 63.1519 63.1067 63.7614 65.3067 67.1467 69.5978 73.9403 76.1858 77.3189 76.8833 76.0158 75.5011 75.2678 75.1467 75.5436 76.8517 78.5533 80.0425 82.303 84.6358 85.5144 83.695 83.1617 83.2894 83.6622 84.2383 86.1714 89.9486 89.4883 87.0003 83.0692 77.6683 72.9286 68.6042 65.6617 64.1469 63.3408 63.14 63.1128 64.3881 64.3792 62.9314 59.9675 56.6 52.5478 49.6797 48.7758 45.7567 44.0761 42.3292 40.9142 39.9181 38.6067 37.3869 38.0264 39.8608 43.6689 45.7669 47.835 49.4669 49.6628 48.9392 48.1878 45.8842 44.9417 43.2672 41.3467 40.0375 42.2992 43.5717 44.7008 46.1467 49.5806 50.545 51.0622 51.4217 51.8792 52.5367 54.3381 55.4767 56.1514 56.885 57.7858 58.8061 59.7505 61.0067
62.2108 64.8858 64.8864 63.1475 60.5725 59.6428 59.1017 58.9481 59.6953 61.4283 62.385 61.9067 61.88 61.7339 61.2311 61.1875 62.1106 63.8503 66.26 68.7989 72.6283 75.705 76.8858 76.1142 75.1092 74.1361 73.8503 73.7358 74.0269 75.1758 76.9775 78.1153 80.5669 83.1767 84.3531 83.7253 82.6417 82.3983 82.6133 83.13 84.4217 87.9497 88.6992 86.4903 83.3453 77.41 72.2553 68.0703 64.7825 62.7405 61.6789 61.5708 61.7322 62.5089 63.045 62.4561 60.1328 57.115 53.3306 49.9758 48.9633 46.5689 43.9069 42.3842 41.0767 39.9353 38.5858 37.4864 38.1844 38.9908 43.1069 45.5417 47.6067 49.748 50.5083 49.3017 47.2492 45.3189 44.28 42.43 40.6708 40.0225 42.263 43.5219 44.3758 46.5172 49.1106 49.98 50.2856 50.6108 51 51.803 53.0522 55.2067 55.9681 56.7203 57.5517 58.4622 59.2775 60.5283
61.59 64.39 65.1083 63.2875 60.1792 58.6808 57.7125 57.1983 57.5692 59.02 60.2583 60.1983 60.0575 60 59.645 59.7475 60.4833 62.7633 65.6725 67.9942 70.9708 74.9475 76.2283 75.3242 73.6375 72.5883 72.3967 72.3875 72.7783 73.9983 75.3925 76.7283 78.8475 81.615 83.0825 83.3592 81.835 81.6483 81.5142 81.8825 82.8508 85.905 87.5775 86.15 83.2717 77.6625 72.6575 68.1342 64.4675 61.855 60.9508 60.7275 60.3042 60.7967 61.34 61.9333 60.5483 57.855 54.395 51.4792 49.0625 47.6875 44.0992 42.55 41.23 39.8192 38.03 37.3867 38.0558 39.0475 42.8225 45.3958 47.5075 49.99 50.18 48.2975 46.6025 45.1008 43.5725 42.0025 40.2533 40.385 42.3958 43.1292 43.9925 46.6683 48.1142 48.9325 49.4717 49.9958 50.57 51.2942 52.3567 54.64 55.715 56.405 57.0175 57.7508 58.4925 60.025
61.4067 63.9775 65.0178 63.4567 60.0733 57.88 56.7817 56.35 56.2889 57.0617 58.1511 58.4067 58.3433 58.6286 58.7547 59.2158 59.7686 62.05 65.4225 68.0394 70.3036 73.8567 75.3931 74.3772 72.2242 71.3558 70.9153 70.9892 71.3047 72.3347 73.6742 75.1581 76.9642 79.9908 82.1703 82.5792 80.7742 80.5469 80.4372 80.7725 81.6508 84.1756 86.1808 85.5069 82.6508 77.9025 73.4847 68.5661 64.6358 61.5125 60.4575 59.4342 58.5539 59.0733 59.735 60.8231 61.0958 58.7992 55.6386 52.5645 49.5283 47.77 44.5483 42.4033 41.0014 39.5419 37.745 36.8925 37.9772 40.0917 42.8172 44.8833 47.4208 49.9778 49.4628 47.3142 45.4975 44.1522 42.6733 41.4222 39.9233 40.2433 41.905 42.3489 43.4633 46.2139 47.2067 47.9683 48.7842 49.41 50.2692 51.0422 52.0528 54.0775 55.2175 55.7106 56.1583 56.9214 57.6881 59.5842
61.1483 63.8006 64.7022 62.54 59.3695 57.4269 56.2183 55.7403 55.6589 55.9233 56.4058 56.6133 56.6342 57.6508 58.3111 58.9383 59.6281 61.7314 65.2775 68.3722 71.0075 73.2008 74.2497 73.3733 71.2075 70.1264 69.7197 69.72 69.7869 70.2922 71.4017 73.2222 75.4347 78.4017 81.2186 82.0236 80.2533 79.7622 79.7528 80.0742 80.3705 82.3586 84.4325 84.1481 81.8947 78.7017 74.2044 69.2803 65.0692 61.8678 59.5317 57.7458 57.3655 57.7922 58.2217 59.4886 60.5503 59.085 56.4336 53.5628 49.915 47.4533 45.7861 42.055 40.6808 39.2392 37.705 36.5569 37.6292 39.7883 41.4864 44.3533 47.3258 49.2664 48.4953 46.6283 44.4961 42.7875 41.6067 40.4967 39.2619 39.6942 41.1208 41.7017 42.8267 45.1711 45.8653 46.3558 46.8811 49.4297 49.3267 50.8792 51.9422 53.4433 54.2903 54.8103 55.3208 56.0925 56.7783 59.0183
60.8125 63.66 64.2158 62.0825 58.995 56.6517 55.7 55.2025 54.8817 54.835 54.8467 54.8783 54.98 56.6983 57.99 58.955 59.7908 62.0217 65.0775 68.1333 70.8917 72.565 73.3425 72.7042 70.95 69.2958 68.9608 68.745 68.6042 68.9133 69.9975 71.9858 74.0333 76.88 79.8642 81.5442 79.9875 79.1933 79.13 79.455 79.7508 80.1492 81.42 82.795 81.2783 78.81 74.9542 70.1192 65.8675 62.3117 58.6642 56.835 56.3517 56.5275 56.9 58.3433 59.83 59.255 57.155 54.3683 50.9275 47.2492 45.8858 42.6425 40.3992 38.8525 37.435 35.9008 37.0725 39.25 41.265 44.6192 46.375 48.2058 47.4492 45.4525 43.185 41.8475 40.63 39.5167 38.2475 38.3025 40.1908 41.1817 42.735 43.5092 44.445 46.64 50.6642 51.5167 51.82 52.2733 52.5033 53.6475 54.2542 54.7917 55.5775 56.1133 56.7217 59.175
60.26 62.6833 63.1794 61.9 58.3594 55.6625 54.8733 54.2758 53.6544 53.4967 53.4181 53.4072 54.0758 55.4472 57.8953 59.1342 60.2119 62.2147 64.6608 67.6 70.1856 72.7042 73.0686 72.0044 71.1592 69.1097 68.1478 67.8117 67.4964 68.1595 69.385 70.9994 72.7944 75.5542 78.2875 80.6592 79.9967 78.7883 78.7267 78.9317 78.5478 78.1133 79.1783 81.0461 80.5258 78.1975 74.2803 69.5358 65.9575 62.3514 58.43 56.0742 55.7267 55.7906 56.1367 57.4744 59.9778 59.7458 58.0736 55.3683 52.4067 48.8464 45.9925 43.4092 40.3022 38.52 37.1442 35.8225 36.9186 38.3242 40.5117 43.2961 44.77 46.9536 45.0281 43.5058 42.1794 40.995 39.62 38.2714 37.5386 37.6733 39.7858 41.0422 41.9808 43.3292 45.7483 49.0283 51.8139 52.1939 52.73 53.0772 53.377 55.1517 55.8597 56.5383 57.1175 57.4217 57.9053 59.4692
59.1458 61.1317 61.6592 60.7317 57.2847 54.6308 53.5475 52.8586 52.3528 51.9733 51.9133 52.3403 53.0125 53.9667 55.8056 58.7742 60.5289 62.3817 64.7 67.1058 69.7625 72.2975 72.4589 71.1278 70.2117 69.3594 67.2375 66.8983 66.6342 67.0567 67.9467 69.6019 71.6214 74.395 77.1547 79.9364 80.4417 78.5775 77.9275 76.6683 76.6022 76.7853 77.5758 78.9386 78.7461 76.8483 73.2381 68.9964 65.7258 62.0705 58.4561 55.9167 55.3356 55.3328 55.5575 56.3461 59.8311 60.4933 59.8 56.6989 53.3142 49.7836 46.2167 43.1042 40.2778 38.3603 36.6075 35.3964 36.6989 37.7125 39.0456 40.4811 42.4483 44.0447 43.4472 41.9267 41.1922 39.8814 38.4467 37.33 37.0692 37.6908 40.4722 42.307 43.3367 44.8414 47.2967 50.4592 51.9078 52.3972 53.9167 54.0458 54.6175 56.0458 56.9089 57.7797 58.47 58.6769 58.5475 59.2767
58.49 60.2075 60.2767 59.25 56.7733 54.3475 52.6625 51.5358 50.8492 50.46 50.3292 50.6058 51.705 53.2583 55.4075 58.5075 60.8575 62.7575 64.8325 67.2533 69.75 71.9825 71.6275 69.9325 68.78 68.0192 66.5392 66.075 65.8942 66.3767 67.235 68.6183 70.3867 73.3525 76.2642 79.2167 80.3325 78.0858 76.8475 75.51 75.2975 75.3617 75.79 76.7725 76.835 75.275 71.34 67.8225 64.7825 61.4092 58.2817 55.6875 54.8933 54.3117 54.5575 55.2033 58.6042 60.4325 60.24 57.1725 53.34 49.7742 46.2133 43.385 40.1817 37.99 35.9925 34.895 36.3217 36.8675 38.3425 40.1733 41.565 42.5192 41.9833 41.31 40.3325 38.7308 37.015 36.295 36.6983 38.4175 40.9658 42.8475 44.4775 46.1033 48.1692 50.59 51.64 53.4167 55.3075 55.4192 56.0825 57.2125 58.3258 59.2308 60.07 61.1425 60.9492 60.2775
58.2383 59.7556 59.2636 57.7642 55.5439 53.7031 51.4067 50.0617 49.6497 49.4633 49.3631 50.0339 51.8808 54.1042 56.6497 59.3242 61.3375 63.0889 65.0358 67.4897 70.0361 71.8342 70.9836 68.8011 67.4025 66.5358 65.8811 65.4892 65.2208 65.6481 66.4233 67.7056 69.4339 72.185 75.5153 78.7719 80.3275 77.9581 76.7883 74.5933 74.4622 73.8519 73.425 74.3189 74.5336 72.7267 69.4031 66.4042 63.5475 60.6658 57.6155 54.6875 53.3525 52.1586 52.7908 53.9994 56.455 59.2092 60.1592 56.8919 53.0117 49.9842 46.0392 43.32 39.8772 37.5794 35.3775 34.0103 35.5472 36.3392 37.5936 39.3419 40.6858 41.1436 40.7555 40.4975 39.1922 37.5317 36.125 36.4336 37.7914 39.7275 41.7803 43.7061 45.4683 47.1153 48.9681 50.7458 51.8222 54.743 56.1525 56.8175 57.8892 58.9875 60.0067 60.7514 61.7992 62.7067 62.4245 61.3867
57.5917 59.1653 58.1214 56.1108 54.2614 52.6733 50.97 49.6444 48.9331 48.8133 49.3381 50.3472 52.7592 55.1878 57.9814 60.4875 62.3089 63.9378 65.8108 68.1478 70.3383 71.5317 70.1486 67.6192 66.1492 65.1653 64.295 62.6617 62.6769 63.3381 64.02 64.7408 67.3842 71.1083 75.1783 79.1597 80.7292 79.318 76.8761 74.1058 72.7106 70.9758 70.4025 71.0806 71.1961 69.7883 67.3958 64.7342 62.0058 59.0636 56.5419 53.875 52.4719 50.9614 51.29 52.2506 53.985 57.2433 59.1044 56.3036 52.4975 49.5567 45.0647 41.66 38.8692 37.1089 34.8475 33.9556 34.9355 35.9942 37.0486 38.4594 39.6442 40.0206 40.1017 39.4917 38.0831 36.5136 36.0042 37.2183 38.8978 40.6775 42.6225 44.4658 46.1675 47.8233 49.5272 51.1408 52.7336 54.9172 56.2408 57.4686 59.1192 60.555 61.7381 62.3406 63.3708 63.9664 63.6345 62.0642
56.4725 58.97 57.0658 54.7725 52.7958 51.8817 50.88 49.7783 48.9183 48.875 49.59 51.1892 53.8675 56.5292 59.4292 61.9375 63.6208 65.7483 68.085 69.5675 70.3742 70.7425 68.8567 65.8942 64.685 63.7258 62.9467 61.845 61.7767 62.36 63.4125 64.4942 66.6758 70.715 75.3875 80.0025 81.415 81.2358 78.3458 74.835 71.7867 69.48 68.4675 68.3217 68.405 67.2125 65.295 62.8208 60.0775 57.3925 54.9325 52.985 51.8 50.5433 50.5025 50.9242 51.9442 53.81 54.5008 53.3042 50.655 47.2017 43.8467 41.095 38.2808 36.695 34.68 33.8775 34.6167 35.5525 36.6633 37.9592 38.78 39.1217 38.9733 38.71 37.28 35.7392 36.7025 37.9658 39.6325 41.4725 43.2708 44.7592 46.4425 48.1925 49.9733 51.4325 53.075 55.19 56.495 57.7833 59.6667 61.6025 63.2883 64.2683 65.125 65.7608 65.5 63.6225
55.0742 58.0303 56.1575 53.2717 50.9553 50.3928 49.8525 49.2969 48.8481 49.1908 49.9614 52.8867 55.3217 58.1233 60.995 63.9208 66.0758 68.6408 70.1508 70.315 70.3406 69.745 67.4883 64.6275 63.3042 62.2586 61.4719 61.1033 61.0347 61.5944 62.955 64.1822 66.2925 70.43 74.8356 79.4314 82.3717 83.0744 80.3795 75.8808 70.7794 69.1217 68.5533 67.1267 66.0889 65.2867 63.4636 61.1769 58.1742 55.3283 53.23 51.9325 51.0003 50.1614 49.6067 49.7478 50.2686 51.0808 51.8639 51.2117 49.0125 45.812 43.2328 40.9758 37.6467 35.9783 34.3417 33.6286 34.2603 34.99 36.2614 37.5672 38.0742 38.2436 37.7672 37.2075 35.8214 35.6147 37.1092 38.5703 40.1033 41.7592 43.3817 44.9456 46.6508 48.4728 50.4903 51.8367 53.4317 55.3864 56.7033 58.0133 59.8794 62.2333 64.6178 66.2183 67.2792 67.9928 67.5656 64.8058
53.6075 56.5244 54.5364 51.9717 50.2875 49.5525 48.8817 48.4331 48.7703 49.45 50.9992 53.6364 56.35 59.072 62.1958 65.2783 67.9567 70.1736 71.8783 72.2108 70.92 68.9542 66.18 63.4414 61.9758 60.7644 60.0564 59.915 60.0903 60.8483 62.1608 63.7067 66.2442 70.4058 73.9064 78.5003 82.7908 84.4411 81.8811 77.755 73.7539 71.5744 69.6842 67.5439 65.2661 63.2133 60.8828 58.59 56.135 53.8661 52.6372 51.3967 50.3269 49.6169 48.2875 48.5511 49.1739 49.3942 49.72 49.7194 47.79 45.0133 42.5567 40.6725 37.2897 35.6317 34.3675 32.9547 33.9039 34.6525 36.1275 37.0908 37.5492 37.4325 36.7064 36.0508 35.0731 35.5317 37.1625 38.8169 40.4658 42.0183 43.5695 45.125 46.805 48.5183 50.4736 52.0183 53.8186 55.6058 56.5133 58.0556 60.1614 62.6567 65.2367 67.5742 68.9017 70.2861 69.855 66.88
52.5475 54.9217 53.4192 51.08 49.3908 48.6375 47.9825 48.0858 48.7633 49.4775 51.0125 53.6117 56.3425 59.14 62.3333 65.47 68.1358 70.9075 73.7025 74.4183 72.2242 68.59 65.0017 62.1033 60.265 58.8142 58.2642 58.455 59.3375 60.3242 61.615 63.6225 66.4983 70.8275 73.8442 78.0442 82.3075 85.1667 82.9308 78.9775 75.67 73.2908 71.0175 68.6983 65.41 63.0025 60.1617 57.7133 55.7525 54.8375 54.165 53.725 51.7392 49.8492 47.1025 46.7225 47.6558 47.605 47.8 48.0483 46.965 44.2983 41.905 40.215 37.0958 35.3983 34.285 32.7092 33.6725 34.5925 35.8208 36.72 37.1125 37.1508 36.5383 35.7675 34.7758 35.2833 36.835 38.595 40.4858 42.0875 43.6767 45.2617 46.88 48.4358 50.0808 52.2175 54.275 55.7792 56.5875 57.975 60.5667 63.5275 66.8425 68.9342 69.875 72.27 71.5358 68.8325
51.3625 53.187 52.145 50.1717 48.5206 47.6461 47.125 47.4817 48.1189 48.88 50.4758 53.1855 56.0392 58.9622 62.2125 65.4783 68.165 71.2636 74.5683 74.9133 72.1422 67.9175 63.3845 60.1972 58.5667 57.4569 57.1025 57.2283 58.3583 59.6958 61.415 63.6536 66.6275 70.52 73.4903 77.9144 82.2075 85.2561 83.425 80.1583 77.5861 75.6822 73.1342 70.6333 68.4789 65.3167 62.6003 58.9922 57.4367 57.5922 57.8719 57.4742 54.9736 52.0078 48.1633 45.9731 44.8322 45.4408 46.3036 45.3925 45.1775 43.6083 41.188 39.3825 37.0297 35.2164 34.0858 33.0747 33.4133 34.3158 35.3655 36.1908 36.48 36.5733 36.3356 35.6842 34.9133 35.0906 36.6158 38.3883 40.2822 41.9525 43.6131 45.2886 46.9675 48.6478 50.3797 52.5125 54.5786 55.5789 56.3617 58.0083 60.7053 63.8608 67.1192 69.1067 70.8567 72.9789 72.7083 70.0017
50.1175 51.5 50.5383 48.6092 47.3994 46.6439 46.28 46.1897 46.2995 47.4675 49.58 51.7022 55.0275 58.2667 61.8819 65.2925 68.0267 71.1564 74.5142 73.1803 70.3797 66.5242 62.3853 58.7272 57.2292 56.3644 56.0428 56.345 57.6514 58.9425 60.2183 62.6581 66.32 69.915 72.9683 77.6283 82.0233 84.5461 83.3819 81.4908 80.0386 78.7039 76.0092 73.1186 70.555 67.1575 64.9017 60.9964 59.2783 60.0478 60.6544 60.2417 57.5803 53.8803 50.0133 46.0575 44.4775 43.37 43.5944 43.8789 43.8225 43.1717 40.1261 38.6325 36.6528 35.0919 33.8092 33.25 32.4375 33.99 34.9411 35.745 35.7725 35.8458 35.7356 35.2267 34.6428 35.0789 36.8542 38.8003 40.2389 42.0983 43.8217 45.3872 47.095 48.775 50.515 52.4508 54.3658 55.4053 56.0433 58.4536 60.4331 63.6783 66.7333 68.9508 71.0592 72.3828 73.0631 71.3258
48.6275 49.3 48.41 47.295 46.4633 45.6425 45.32 45.4433 45.6458 46.9275 49.0675 50.6008 53.235 56.8983 61.0342 64.705 67.5217 70.1867 72.81 71.1958 67.7783 64.26 60.8833 57.5592 56.1125 55.3992 55.1658 55.74 57.0225 58.2675 59.1625 60.4783 65.3917 69.695 72.765 76.9825 81 83.0342 83.6417 83.3475 82.7617 81.6725 78.495 74.8092 71.9308 69.045 66.4175 63.8617 62.095 61.9908 62.2542 61.9175 59.8433 55.6425 51.6575 47.2892 44.0508 42.9225 42.2483 42.6283 42.405 41.6817 39.1542 37.5675 36.3058 35.0883 33.8775 32.8542 31.9658 33.87 34.8658 35.0217 35.05 35.0825 35.045 34.515 34.2475 35.5125 37.8025 39.8925 41.7433 43.515 44.5033 45.4125 47.18 48.9058 50.5058 51.9775 53.6992 55.2025 55.725 58.4975 59.8058 62.6525 66.2242 68.2233 70.1225 72.1842 73.25 72.38
46.8542 47.2445 46.7331 45.9308 45.4897 44.6758 44.1558 44.6358 45.1936 47.2125 49.0106 50.2161 51.6883 54.93 59.4114 63.6133 66.5333 68.7003 70.4683 69.3489 65.5242 62.1542 59.1911 56.3272 54.9583 54.3047 54.1167 55.2975 56.6964 57.6106 58.2983 59.2958 64.5481 69.6583 72.6839 76.6908 81.0808 83.3347 84.95 85.2292 85.3611 84.5161 81.1433 76.9358 73.5844 70.595 68.182 66.1325 64.42 63.8783 63.4442 62.6975 61.0856 57.07 52.1517 48.7083 43.7686 42.4333 41.7369 40.7264 40.9042 40.1486 38.6503 37.2275 36.1144 35.0708 33.7958 32.4986 31.697 33.5208 34.2058 34.1317 34.2108 34.2456 34.2989 33.5867 34.3147 36.3628 38.7008 41.4819 44.2256 46.6608 46.2003 45.8961 47.2817 48.7158 50.2703 51.5958 53.1783 54.8108 55.7067 58.365 59.4481 61.5225 65.1678 67.2875 69.3817 71.8633 73.6258 72.9342
45.18 45.3836 45.25 44.8358 44.2425 43.1942 43.3442 43.7608 45.4128 47.5025 48.9019 49.8708 51.1633 52.9322 56.9975 61.6358 64.8172 66.7375 67.5608 66.7328 63.7719 60.4558 57.6967 55.4905 54.1783 53.1522 53.8003 55.1208 56.1233 56.8967 58.04 59.4208 65.5783 69.3283 72.5964 76.8717 81.0083 83.6033 85.6422 86.7958 87.6328 86.9428 84.61 79.4147 75.8925 73.3758 70.7647 68.5658 66.1508 64.8358 64.575 63.8933 61.8422 57.7722 52.3917 49.8042 46.0889 42.3725 41.6547 40.3419 39.4417 39.2775 38.3633 36.8317 35.8556 34.9153 33.6175 32.2989 31.485 33.0258 33.1514 33.3217 33.335 33.2608 33.2464 32.7767 34.5917 36.8572 39.2767 42.2794 45.6069 48.455 48.4489 47.8633 47.8592 48.8356 50.1897 51.6 52.7603 54.1853 55.1967 58.065 59.0372 60.5958 63.6767 66.4111 68.3825 70.6567 72.3175 72.9858
44.0325 43.4942 42.9467 42.66 42.1942 43.075 44.4275 44.9842 46.4533 48.0575 48.9283 49.73 50.9125 52.2783 54.3975 58.865 62.4283 64.06 64.475 63.9775 61.6175 58.8375 56.4867 54.8192 53.765 52.4608 53.0783 54.2425 55.3608 56.6183 57.925 59.4317 65.4817 68.335 72.0675 76.2433 80.045 82.8092 85.5308 88.045 89.9925 89.4275 87.775 83.6975 78.9975 77.9775 74.6867 71.8608 68.97 66.9583 66.0125 65.19 61.9967 57.9475 52.86 50.0308 46.0992 43.385 41.3083 39.9525 38.9075 38.6375 38.1425 36.3825 35.51 34.5775 33.435 32.3175 31.5008 32.26 32.6608 32.8875 32.645 32.3567 31.7533 32.4025 34.8475 37.28 39.86 43.1317 46.6642 49.6625 50.2817 50.0942 49.3 49.4975 50.3708 51.365 52.6467 53.6958 54.8 57.4083 58.525 59.8225 61.67 64.1517 66.5725 68.61 70.5758 72.47
42.6642 42.5769 41.5933 40.6883 40.5347 42.8697 45.0442 46.895 48.1272 48.6625 49.0256 49.7072 50.8533 52.2508 53.5489 55.84 59.3283 60.7714 61.1767 61.0055 60.3464 57.9858 55.9197 54.3103 52.96 50.8861 51.8119 53.2267 54.3192 55.7858 57.735 59.555 63.8628 67.05 70.0053 74.4358 78.215 80.8428 84.0139 87.5983 91.1717 92.7942 91.7525 89.4039 84.39 82.05 79.1447 75.835 71.96 69.5975 67.7736 65.7825 61.9608 57.8686 52.7908 49.7422 46.1622 43.8017 40.6203 39.4228 38.4733 37.303 37.3467 36.1833 35.2047 34.2133 33.2025 32.1861 32.0403 31.0858 32.0661 32.5533 32.4092 32.1567 31.1214 32.5492 35.27 37.7625 40.435 43.8311 47.2144 50.1575 51.6895 51.9139 51.1117 50.2983 50.7769 51.4967 52.7567 53.8064 55.3242 57.2225 58.3989 59.3492 60.3633 61.6033 63.975 65.7078 68.7744 71.8083
41.26 41.1017 40.0753 39.2192 39.8617 42.8845 46.3025 49.1025 50.1972 49.9133 49.8892 50.0686 51.1075 52.3797 53.49 54.5217 56.8033 58.3583 59.5725 59.7811 59.2392 57.3683 55.3711 53.4386 52.035 49.8967 50.7475 52.3783 53.9161 55.4283 57.33 59.5678 62.8433 65.7025 68.4131 72.0747 76.4375 79.1544 81.2672 84.6925 89.7136 93.5314 95.2958 93.9394 90.6208 85.7825 82.7081 79.9394 75.2742 72.2603 69.5853 66.7683 62.2181 57.3272 52.5667 49.3103 46.0372 44.3 41.1628 39.1069 38.1017 36.9797 35.7442 35.115 34.7233 33.7975 32.7933 31.7697 32.498 30.7308 31.3011 32.0622 31.9083 31.2239 30.8489 33.0092 35.443 38.2331 41.1075 44.1389 47.0208 49.9925 52.6225 53.5678 52.8125 51.7919 51.6981 51.9667 52.8547 53.9561 55.6875 57.373 58.4986 59.3117 59.8678 61.9828 64.0508 66.2786 67.4153 70.7408
39.9925 39.4817 38.5258 38.715 40.5208 43.4083 47.0025 50.1383 52.2883 51.915 51.0583 51.1017 51.8625 52.6942 53.5133 54.545 55.6267 57.1275 58.8075 59.4708 58.5792 56.9025 54.2675 52.3008 51.1375 49.5325 50.3042 52.1275 54.0258 55.5133 57.1875 59.4325 62.1675 64.6075 67.1267 70.365 74.3425 77.8617 79.4892 81.795 87.0217 92.5792 95.7025 96.0633 94.155 90.42 85.8933 81.9275 77.975 74.76 71.5325 67.385 61.9958 57.1508 52.8725 49.3442 46.2183 44.9075 42.1092 40.2942 38.095 36.7917 35.5383 34.245 33.31 33.01 32.33 31.8958 31.4017 30.69 30.7617 31.685 31.285 30.1767 32.2225 33.7575 35.8758 38.6683 41.525 43.9525 46.2533 49.5925 52.4108 53.9175 53.635 52.7025 52.6575 52.72 52.97 54.27 56.2575 57.4908 58.5733 59.1875 59.7142 62.3358 64.9075 65.6042 66.4533 69.7925
38.2083 37.5228 37.1875 39.015 41.0772 43.4864 47.09 49.8186 52.435 53.3792 52.2358 52.2153 52.705 53.3392 53.895 54.635 55.4889 56.7008 58.2675 58.7022 57.6456 55.8742 52.9722 51.4631 50.2317 49.0878 50.1636 51.8517 54.4147 55.5275 56.8783 58.5903 61.1 63.45 66.0236 69.5511 72.9558 75.7217 78.7486 80.1475 84.9172 91.8269 95.6258 97.1178 95.9905 93.6367 89.5744 84.4711 80.1592 76.5528 72.6672 67.285 61.4375 57.0856 53.4075 49.3711 47.4439 44.8025 43.2111 41.2147 38.955 37.6731 35.8881 34.1917 32.1758 31.86 31.6667 31.8386 30.5469 30.6075 30.5778 31.2897 30.5158 31.5781 33.3655 34.7308 36.8572 39.255 41.605 43.8356 45.8358 49.0342 51.6992 53.7714 54.3075 53.6492 53.51 53.5692 53.4325 54.62 56.565 57.7003 58.5189 59.0467 59.58 62.2625 64.3683 64.7311 65.3608 68.6358
36.6017 36.1058 36.7253 40.035 41.5517 43.7467 47.1483 49.3389 51.2897 52.79 53.0125 53.0942 53.4367 53.9403 54.4417 54.9183 55.6339 56.5842 57.8467 57.4717 56.3889 54.5508 52.053 50.7667 49.2567 48.7592 49.8111 51.455 54.3211 55.4881 56.4583 57.73 59.72 62.2408 64.9353 68.8747 72.0733 74.558 77.6058 79.67 84.5578 91.3378 95.5433 97.6461 97.4817 95.6833 92.2489 87.4128 82.4858 77.7603 73.0239 66.8975 60.5878 56.875 54.1983 50.0467 47.4358 45.16 43.1383 41.3403 39.7525 38.2133 36.2142 33.6375 31.6025 31.1769 31.4658 30.6172 30.6186 30.4 30.3883 30.7303 30.5833 32.5656 34.0789 35.4508 37.3075 39.4589 41.5917 43.8008 45.8217 49.1125 51.42 53.9183 54.3017 53.9836 54.1658 54.1292 53.7008 55.3225 56.925 57.6664 58.4117 58.94 59.4753 62.0547 63.5275 63.8294 64.3972 66.8667
35.2175 35.035 37.8833 40.6975 42.02 44.1292 46.755 48.9225 50.2642 51.7075 53.0342 53.2858 53.64 54.1358 54.6417 55.0775 55.8133 56.6392 57.0375 56.1567 55.0717 53.4625 51.2617 50.0142 48.1425 48.1375 49.1208 50.4475 53.27 55.2383 56.005 57.1883 58.7108 60.65 63.7642 68.0258 71.4025 73.625 76.5433 79.3925 84.7875 90.865 95.2225 97.4592 98.3442 96.5575 93.8708 89.2083 83.2925 77.86 72.7908 66.1025 59.5933 55.5033 52.825 50.7383 46.6258 44.8225 43.3358 41.73 40.1775 38.5375 36.625 33.5 30.7417 30.765 31.095 30.6833 30.36 30.0625 29.7067 29.725 31.205 33.1142 34.7483 36.1225 37.6133 39.3633 41.385 43.4567 45.6017 48.78 50.9667 53.3475 53.6725 54.085 54.5892 54.445 54.08 55.5767 57.3825 57.7633 58.3875 59.005 59.56 61.5967 62.9825 63.1183 63.6417 65.2025
34.3292 35.4322 38.7456 40.8308 42.3647 44.2644 46.42 48.245 49.9053 51.5833 52.9031 52.89 53.51 54.5439 55.1167 55.1825 55.79 56.3733 56.4242 55.2208 53.41 51.7283 50.3147 48.9756 47.1325 47.5658 48.5208 49.4233 50.5744 52.9261 55.4267 56.612 57.9294 59.9092 62.3014 66.7742 70.7525 73.2614 76.16 79.0983 84.5339 90.0617 94.5767 96.807 97.7692 96.315 94.2108 89.3136 82.5617 76.6792 70.5731 64.9033 58.8794 54.6844 52.1142 50.7439 46.2881 44.5475 43.2556 41.928 40.4983 38.9006 37.0358 34.1917 32.6155 31.8836 30.0575 30.1981 29.9875 29.5167 28.9792 30.2419 31.6933 33.235 34.8678 36.3483 37.8344 39.3539 41.0867 42.9611 45.1608 48.4642 50.0106 52.3169 53.4225 53.9531 54.8708 54.6858 54.4925 55.6794 57.6483 58.5381 58.905 59.3283 59.9044 61.3303 62.6125 62.8017 63.0667 64.055
34.0267 35.6119 38.6361 41.0233 42.7467 44.2408 46.0367 47.7214 49.47 51.445 52.4992 52.6336 53.3717 54.9097 55.6 55.5117 55.7067 56.0572 56.065 54.645 52.5856 50.8442 49.5389 47.9267 45.8733 47.1103 48.2961 49.0725 50.0114 51.2889 53.5592 55.8267 57.4297 59.3308 61.0236 65.6111 69.6292 73.1778 76.2814 78.91 83.2122 88.4442 93.2125 95.8419 96.8144 95.8 93.4814 88.0086 80.8483 74.8728 68.6769 63.0383 57.7525 53.9395 51.6417 50.4481 46.615 44.44 43.0428 41.6708 40.555 39.0086 37.1461 34.6392 33.4961 32.3375 31.0442 29.3647 30.0047 29.4283 29.6631 30.4383 31.9108 33.3847 34.8644 36.3467 37.8192 39.2856 40.8467 42.5272 44.4967 47.9708 49.4061 51.3386 53.1392 53.8425 55.1056 54.9642 54.8922 56.2653 58.38 59.4642 59.7719 60.0067 60.2747 61.4208 62.2183 62.4186 62.6078 63.3217
34.485 35.9908 38.4175 40.9575 42.9267 44.42 45.665 47.3142 49.1217 50.74 51.7625 52.5133 53.5125 55.0325 55.735 55.615 55.3658 55.6642 55.695 54.1425 51.6692 49.8925 48.52 46.8308 45.7125 46.9817 47.8142 48.6625 49.5817 50.8867 52.515 54.7433 57.4192 59.0575 60.7333 64.5708 68.5725 72.595 76.0675 78.66 81.6608 86.1583 91.32 94.6358 95.8083 95.0425 91.9267 85.9783 78.9225 73.0125 67.5975 61.825 56.9858 53.4342 50.9925 49.68 47.0633 44.37 42.9558 41.555 40.22 38.7642 37.2025 35.31 33.7008 32.5442 31.0975 30.3842 29.9917 29.23 29.6308 30.2867 31.7525 33.235 34.7733 36.245 37.6583 39.0717 40.525 42.0783 43.855 46.9975 48.8525 50.5158 51.9725 52.725 55.0425 55.0425 55.0092 57.0983 59.3075 60.3583 60.7692 61.1175 61.5117 62.4717 61.9025 61.9083 61.9558 62.675
36.1933 37.3072 38.8961 40.825 42.4844 44.2325 45.5392 47.0431 48.6608 50.01 51.1855 52.3653 53.4117 54.6372 55.2728 55.2683 55.1458 55.1114 54.9125 53.3567 50.6556 49.0158 47.7275 45.2267 45.2933 46.5322 47.0642 48.1733 49.3728 50.5705 52.0583 53.7906 55.3655 58.6342 60.0264 62.7056 67.0367 71.2886 75.5856 78.2767 81.2428 84.4253 88.6692 91.77 93.3953 92.8892 89.7094 83.3619 77.5717 71.4022 66.8403 60.9075 56.7942 53.6983 50.2308 48.1328 46.0881 44.1333 42.6119 41.2947 39.9142 38.6531 37.0506 34.9642 33.9069 32.5092 31.08 30.2606 29.8217 29.215 29.5597 30.0628 31.3692 32.8881 34.4836 35.96 37.3364 38.7092 40.095 41.6378 43.2258 46.0533 48.3239 49.5333 50.76 51.8492 53.2003 54.1083 54.8733 56.9383 59.2975 60.6692 61.5497 62.0575 62.7069 63.4322 62.1783 61.6925 61.6358 62.1742
36.9983 38.085 39.5658 41.2092 42.7928 44.2569 45.89 47.5217 49.3214 50.5375 51.5869 52.6889 53.1392 54.0658 54.365 54.2467 54.1547 54.0089 53.7083 52.4106 49.8061 48.3533 46.9464 44.5811 45.3025 46.0767 46.5367 47.845 49.2019 50.618 51.8925 53.3836 54.5022 57.0667 59.7769 61.0842 65.3383 69.5244 74.8967 77.7967 80.5703 83.6447 85.5425 87.9514 89.8108 90.0375 87.1711 81.9053 77.2683 71.4675 66.1011 62.0425 57.4172 55.2736 50.3892 48.7033 45.7411 43.8583 42.1769 40.7578 39.1108 37.7347 36.0156 34.7275 33.7394 32.5267 31.0292 30.0303 29.6239 29.1258 29.5694 29.9444 30.9967 32.5183 34.0214 35.5075 36.8658 38.2364 39.5092 41.1556 43.08 45.5433 48.0497 49.1992 50.2425 51.2511 52.2656 53.3425 54.5042 56.5853 59.1875 61.1939 62.18 62.9325 63.9558 64.8086 63.0483 61.4006 61.25 61.5117
36.9075 38.3083 40.0175 42.0975 43.7233 45.4583 47.2125 48.8292 50.6025 51.6825 52.2958 52.7717 52.9175 53.5258 53.5175 53.3675 53.0925 52.7958 52.5275 51.6008 49.2325 47.2975 45.6708 43.7275 44.945 45.5792 46.0717 47.6275 49.4 50.8292 52.0825 53.2317 54.4708 56.065 59.0383 60.8133 63.9975 68.1775 73.7492 77.1475 79.4667 81.9408 83.79 85.2308 86.6858 87.36 85.9842 82.8108 79.2475 73.8758 69.0375 64.1025 59.2175 55.5625 50.94 48.755 46.2458 44.0175 42.1225 40.7183 39.0925 37.0333 35.5383 34.5325 33.5433 32.56 30.915 29.8867 29.5117 29.2575 29.5783 29.8575 30.585 31.9417 33.3083 34.9825 36.5275 38.0483 39.6 40.8475 42.4308 44.2375 47.3233 48.6875 49.645 50.615 51.6358 52.685 53.7925 55.9225 58.8225 60.9808 62.1958 63.22 64.515 65.4008 63.5 61.12 60.7942 60.945
36.525 38.3622 40.4497 43.2067 45.1983 47.2181 48.9892 50.3617 51.5572 52.3858 52.795 52.6308 52.6792 52.822 52.7047 52.5675 52.265 50.7717 50.5758 50.4842 48.7644 46.3667 44.7689 42.9642 43.8125 44.7192 45.865 47.9558 49.8758 51.175 52.2225 53.3242 54.5908 56.205 57.9247 60.4078 62.965 66.9986 72.0919 76.3858 78.5089 80.1272 81.2958 82.4075 84.19 85.6867 85.8292 85.2442 83.36 77.78 71.6822 66.075 61.1692 56.0931 52.7742 48.9789 46.4422 44.1058 42.075 40.5608 39.1617 37.2222 35.8083 34.1083 33.225 32.3086 30.7342 29.575 29.248 28.985 29.3678 29.7192 30.115 30.9178 32.4342 34.545 36.3725 38.0283 39.5033 40.6075 41.8358 43.5442 46.8442 48.1897 49.1517 50.1178 51.0408 52.0483 53.1503 55.1583 58.17 60.5025 61.9075 63.2908 64.8547 65.7583 64.3183 61.1547 60.5008 60.5992
36.2433 38.2292 40.4033 43.41 46.5694 49.0975 49.8992 50.7342 51.7844 52.6842 52.8742 52.5892 52.4617 52.3481 51.2922 50.3433 49.7972 48.7619 49.0192 49.175 48.6453 45.6525 44.1125 42.4525 42.1408 43.6875 45.6606 48.0792 50.395 51.303 52.4725 53.7975 54.9703 56.2108 57.7597 59.0975 61.665 65.32 70.745 75.59 77.5961 77.1178 76.915 78.5192 80.5661 82.5717 84.5522 85.7889 85.5275 80.3869 73.145 67.8133 62.2247 56.2325 53.1483 49.1961 46.5731 44.0775 42.0139 40.4794 38.9908 36.93 35.61 33.4183 32.3836 31.5208 30.7267 29.2561 28.8117 28.4417 28.9494 29.4192 29.6033 30.6 33.855 35.2692 36.5667 38.0411 39.1317 40.2167 41.535 42.9842 46.3042 47.678 48.575 49.4831 50.4028 51.5233 52.7383 54.2714 57.0583 59.6606 61.2922 62.8875 64.9008 66.0547 64.9592 61.1442 60.2503 60.0492
35.91 37.8158 39.8583 42.81 45.5325 47.9267 49.635 50.7433 51.7008 52.5275 52.8083 52.4642 51.595 50.7008 49.6567 48.755 48.3367 48.005 47.89 47.9542 47.8625 45.025 43.1875 42.0325 41.4525 43.0183 44.955 47.355 49.6633 51.5358 52.9225 54.3467 55.425 56.415 57.6967 59.0658 61.175 64.1967 69.1233 74.0575 76.2417 74.69 73.6625 75.2017 77.3583 79.175 81.7833 85.2567 85.93 82.7075 74.9433 69.1975 63.0267 58.4517 53.62 49.4217 46.9792 44.065 42.1467 40.77 38.83 36.7442 35.6958 33.5825 32.515 31.5042 30.36 29.3908 28.8017 28.29 28.4283 29.1942 30.08 32.6908 37.0508 38.59 37.7667 38.0067 38.855 39.9742 41.3083 42.6775 45.5633 46.8492 47.76 48.7167 49.6808 50.7475 52.11 53.6658 56.3575 58.6492 60.2642 62.545 64.8717 66.0333 65.2775 61.0383 59.8367 59.425
35.4517 37.197 39.248 41.8225 44.4317 46.8169 49.1042 50.54 51.377 52.2083 52.5536 52.2281 50.2075 48.8175 48.1253 47.2375 46.8997 46.7411 46.7358 46.85 46.7825 44.3017 42.3611 41.5236 41.3308 42.2867 44.4161 46.4142 48.79 50.6853 52.6892 54.7375 55.6533 56.7317 57.9392 59.1814 60.7683 63.6553 67.9239 71.9875 74.5983 73.147 71.2183 72.2758 74.7825 77.1075 79.6242 83.6647 85.6033 84.192 77.4667 70.7983 64.1342 59.3375 54.2708 50.0403 47.3769 44.4192 42.4378 41.0481 38.7775 36.5028 35.5678 33.5092 32.4478 31.3556 30.1975 29.5103 28.9972 28.4717 28.0489 28.7872 30.3775 33.9525 39.623 41.3233 39.9917 39.5639 39.9075 39.9789 40.9886 42.35 44.5683 45.9828 47.0075 47.9808 48.9144 49.9217 51.4122 53.1658 55.3608 57.7253 59.4333 61.965 64.7328 66.162 65.5208 61.2089 58.8994 57.9258
35.0575 36.4342 38.5483 41.2033 43.7806 46.2217 48.3317 50.1278 51.1739 52.2075 52.3786 52.04 49.8533 47.8417 46.7786 46.1142 45.6539 45.4714 45.645 45.8269 45.7325 43.3308 41.5042 40.5864 41.1767 42.2156 43.9594 45.945 48.0903 50.252 52.8217 54.9525 55.7964 57.1808 58.5611 59.5961 60.7458 63.2164 66.4542 69.4167 71.3194 70.7206 68.7583 68.678 71.9025 75.415 78.2969 81.6728 84.4767 84.6653 79.3989 71.85 64.3553 58.7675 54.365 50.6097 47.3094 44.4225 41.9925 40.4594 37.6517 36.2092 35.4014 32.8775 31.93 31.1483 30.02 29.2792 28.7467 28.2258 27.9911 28.5278 30.4858 34.2856 40.3647 42.56 41.9581 41.1103 40.9325 40.8019 41.2383 41.8675 43.6425 45.3228 46.295 47.2283 48.1667 49.2383 50.635 52.3336 54.5317 57.4492 58.4175 61.1483 64.3889 66.37 66.1733 62.3378 57.7647 56.0742
34.8425 35.7558 37.8117 40.2575 42.9033 45.1133 47.17 48.9558 50.3758 51.4175 51.7592 51.2567 49.1475 47.2342 45.7467 45.1825 44.5975 44.2817 44.5 44.7392 44.6092 42.2875 40.5617 39.5692 40.9675 42.0492 43.345 45.625 47.905 50.6842 53.515 56.3667 57.9892 58.4925 59.2875 60.3942 61.0025 62.5358 65.075 67.2625 68.6667 68.0058 65.9425 65.3667 69.0208 73.51 76.9617 79.6183 82.275 82.69 79.0225 71.925 63.615 58.0667 54.1 52.1542 46.6758 44.65 42.5533 39.3933 37.2975 36.0975 35.3025 32.3125 31.6267 30.9942 29.8675 28.8158 28.2217 27.91 28.1525 28.4958 30.73 34.4183 40.4542 43.3425 43.8683 42.5792 42.14 41.7467 41.7817 41.85 43.2767 44.74 45.6375 46.5017 47.4458 48.6825 49.9733 51.68 54.38 57.3092 58.255 60.4975 63.6275 66.4192 67.1125 63.0392 57.1858 54.4825
34.6733 35.197 36.8083 39.095 41.8456 43.9022 45.7333 47.2047 48.5694 49.4525 49.8258 49.9553 48.3583 46.5822 45.1953 44.3675 43.6272 43.0864 43.2508 43.5389 43.5011 41.2692 39.1539 39.8644 40.9375 41.9564 43.175 45.2425 47.8239 50.6053 53.1458 57.0281 59.4694 60.0208 60.7569 61.2908 61.63 61.8525 63.3528 64.9583 66.0222 65.4536 63.7225 63.7442 65.91 71.1217 75.3472 77.8361 79.4567 79.73 77.4253 71.875 63.3872 57.7992 53.8725 51.382 46.2964 44.4108 41.2531 39.1925 37.21 35.9178 34.7647 31.96 31.3817 30.7956 29.8233 28.6206 27.8133 27.915 28.2 28.5319 30.9742 34.3928 39.8089 43.5667 45.9314 44.2842 43.6475 42.9442 42.5347 42.4533 43.4706 44.4864 45.305 46.1722 47.1 48.1183 49.3644 51.2958 53.9117 56.822 57.8105 59.9175 62.9564 66.0308 67.3017 63.3447 56.9792 53.7492
34.1958 34.8839 35.8175 37.97 40.428 42.5564 44.515 45.8306 47.0053 48.2825 49.0694 49.5514 48.17 46.1622 44.82 43.0758 42.6067 42.025 41.7117 42.2358 42.3061 40.0225 37.9333 39.5008 40.6792 41.7936 42.9933 44.6833 47.1261 50.3167 52.4825 56.2053 59.8153 63.0342 64.6531 63.1878 62.2867 61.3606 60.8378 61.8542 62.2303 62.4297 61.7433 61.7514 64.0267 67.9583 72.79 75.8328 77.05 77.2644 76.1036 71.3133 63.1383 57.4769 53.7383 50.7011 46.3614 43.5267 40.6155 39.0933 37.115 35.8561 33.3422 31.7042 31.1369 30.6017 29.6192 28.2061 28.0203 28.0175 28.2731 28.5369 31.4558 34.3636 38.2869 43.1358 47.2458 46.7983 45.4717 44.9311 43.8342 43.4192 44.7833 45.0075 45.4367 46.2408 47.2153 48.0392 49.045 50.5436 53.3075 54.8408 57.5033 59.5633 62.5192 65.3019 66.6158 63.1631 56.9617 53.4075
33.49 34.1658 35.0283 36.77 39.0075 40.9108 43.0325 44.6625 45.7267 47.34 48.6158 49.1958 48.22 45.7983 44.2475 42.485 41.7308 40.9617 40.3675 40.8067 40.4067 37.8075 37.5542 38.9992 40.17 41.3408 43.1925 45.0725 46.4608 49.6883 51.895 54.7683 59.665 63.39 67.1692 65.9717 63.3025 60.75 59.4392 59.2 58.8358 59.3983 60.13 60.9783 62.8833 65.1025 69.655 73.0617 74.27 74.1783 73.1092 69.1975 62.14 57.0825 53.3875 49.9258 46.195 42.7675 40.2192 38.8108 36.4925 35.9533 32.6775 31.7575 31.075 30.4442 29.2975 28.28 28.235 28.195 28.1633 28.4225 31.755 34.4208 38.0133 43.1225 48.9317 50.4017 48.375 47.3983 46.8033 46.425 45.955 47.4067 47.1575 47.225 47.7425 48.075 49.295 50.6183 52.295 54.2758 57.3267 59.135 62.0808 64.5008 65.9225 62.8358 56.6658 52.875
32.7508 33.5422 34.3433 35.8408 37.6633 39.4333 41.45 43.1195 44.5897 46.5058 48.1817 48.6028 47.545 44.8886 43.0514 41.8025 40.8994 39.9497 39.3483 39.615 38.435 36.2008 37.0055 38.6253 39.8358 41.645 43.9125 45.4742 46.3344 48.8503 51.5367 53.6939 58.5869 63.1833 67.9047 69.1361 64.785 60.4144 57.7475 56.8667 56.2997 55.7544 57.3042 59.8303 61.4747 63.4467 67.1783 70.0767 70.9608 69.9561 68.3439 65.5525 60.3958 56.645 53.0533 49.3867 45.8383 42.5083 40.1103 38.2714 36.3992 35.9353 32.5767 31.7233 30.9269 30.2103 29.13 28.1761 28.1289 28.085 27.9731 28.3039 31.65 34.4864 38.1647 43.7675 49.8564 52.1175 50.1117 47.7808 47.1572 46.8475 46.9433 49.2878 48.6075 48.3522 48.41 48.715 49.4811 50.8847 52.4117 53.9025 56.6181 58.4858 61.3786 63.5511 65.3 62.0628 56.1297 51.9425
32.215 32.9425 33.7747 35.0333 36.2697 37.8058 39.9108 42.0103 44.498 46.5392 47.7553 47.9503 46.8875 44.2122 42.1736 40.9817 40.2703 39.4211 38.635 37.9433 36.3506 35.4642 37.0347 38.9075 40.615 42.3586 44.2939 45.6208 46.5075 47.9294 51.13 53.3583 58.0778 63.0533 67.7483 69.7947 65.41 60.5308 56.9481 54.9683 54.3136 54.2264 54.36 55.2269 59.6147 62.2458 65.3061 67.5792 67.4542 65.5889 63.9081 61.9367 58.493 55.3964 51.6133 48.3442 45.4703 42.5017 40.2831 37.0811 36.4108 35.8156 32.4578 31.6283 30.7975 30.0119 28.8167 27.9617 27.9178 27.8583 27.8544 28.1444 31.08 34.3142 37.8353 43.8983 50.1669 53.0506 52.4883 48.9303 48.3028 48.1792 48.4792 50.6361 49.62 49.2011 49.0475 49.4975 50.2156 52.1986 52.785 54.0922 55.4489 57.9367 60.3078 62.3828 63.845 61.1961 55.2272 51.0733
31.895 32.3642 33.2792 34.425 35.5375 36.9767 39.375 41.39 44.5967 46.46 47.465 47.3408 46.1725 43.4667 41.42 40.2875 39.6967 38.7433 37.945 37.0342 35.4667 35.635 37.045 39.2617 41.2825 43.0533 44.5625 45.845 46.8108 48.0225 50.82 53.7592 57.8142 62.925 66.8025 69.7208 65.3575 60.5942 56.3408 53.4575 52.6492 52.5142 52.72 53.5675 55.9033 59.835 62.85 65.23 65.01 64.0358 61.6183 59.305 56.8042 53.2425 49.6425 47.5217 45.4383 42.5975 40.1817 36.7892 36.11 35.1683 32.4183 31.49 30.6867 29.8967 28.535 27.74 27.7067 27.74 27.8858 28.0125 30.3275 33.6508 36.9642 43.4975 50.41 53.82 54.51 50.8375 49.69 49.66 49.7717 51.7642 50.7975 50.0767 49.6033 49.8375 51.1717 52.5867 53.2625 54.2508 55.5133 57.305 59.4717 61.3375 61.89 59.6258 53.5708 50.54
31.5792 32.0303 32.6253 33.6458 34.8858 37.2947 39.785 41.41 44.53 46.1975 46.9525 46.8189 45.1658 42.4531 40.7914 39.8142 38.9814 37.9919 37.0425 36.0861 34.7578 35.7225 36.7761 39.5144 42.1708 43.7356 44.8339 46.0233 47.2628 48.7017 50.7433 53.9781 56.9867 62.2425 65.8539 68.9858 64.8925 60.3894 55.91 52.1217 50.8111 50.4714 50.6758 52.1178 55.1753 58.27 60.755 62.8878 64.2117 63.6842 60.905 58.1025 55.2722 51.5831 48.4925 46.7978 45.2661 42.7933 39.7956 36.6611 35.9133 33.9267 32.4289 31.4767 30.6439 29.7939 28.4783 27.7267 27.5664 27.5425 27.5075 27.6389 29.65 32.7125 35.7653 43.0133 50.2447 53.9589 55.6317 52.5892 51.0536 50.9783 50.985 52.1311 51.9667 51.0647 50.4786 50.7275 51.4639 52.6886 53.5858 54.4844 55.4236 57.0858 59.0869 60.8228 61.06 57.6153 51.4575 49.5733
31.2825 31.7211 32.175 32.8375 34.4333 36.8225 39.3042 41.1539 43.7708 45.8283 46.1345 45.197 43.8067 41.7233 40.4106 39.0308 38.0358 36.8992 36.1158 35.2547 34.65 35.4925 36.4781 39.3222 42.415 43.8161 45.0958 46.2625 47.575 49.1464 51.0875 53.9564 56.52 61.3708 65.0661 67.4492 63.8867 59.5811 55.1936 50.9892 49.4514 49.062 49.2367 50.9392 54.8089 57.3483 59.5892 62.8931 65.2933 63.6922 60.64 57.7558 54.5356 50.9736 47.83 45.8322 44.5778 42.3258 39.2531 36.5133 35.9033 33.6919 32.4556 31.5433 30.6311 29.7147 28.4117 27.7475 27.4014 27.2475 27.1825 27.2111 29.0542 31.9597 35.2461 42.33 49.3111 53.3383 55.635 53.6886 52.2247 52.1967 52.1144 52.1944 52.7167 51.7236 51.3239 51.68 52.0639 52.7361 53.59 54.4328 55.3206 56.8067 58.5011 60.3956 60.3942 55.515 49.8536 47.5725
31.035 31.3 31.8492 32.495 33.47 35.4583 38.295 40.3275 42.04 44.285 44.4217 43.35 42.1525 40.9092 40.0325 38.525 37.03 35.8425 35.135 33.9442 34.5558 35.1975 36.0142 37.9475 41.055 43.4708 44.9158 46.1325 47.5075 49.0567 51.105 53.6617 56.415 60.6575 64.275 66.0325 62.75 58.4342 53.9758 49.445 47.9392 47.7708 47.6875 49.3333 53.3383 56.0675 58.7842 61.6225 64.6475 63.8808 60.0492 57.39 54.1725 50.5983 47.1525 45.0733 43.935 41.285 38.7308 36.5658 35.59 33.6142 32.4617 31.5525 30.6433 29.5783 28.28 27.5942 27.0883 26.9875 26.9158 26.9892 28.27 31.8925 35.2492 41.0925 47.6317 52.195 55.195 54.545 53.1467 53.025 52.9033 52.9625 53.13 52.1975 52.0308 52.8 52.915 53.6267 54.4225 54.9683 55.6833 56.565 57.7175 60.1117 58.985 53.0542 48.1608 45.535
30.7667 30.7122 31.3928 32.0317 32.8886 34.0636 36.7275 39.1997 40.6731 41.9708 41.7756 41.3975 40.8483 40.3103 39.6975 38.0483 36.3381 35.3775 34.8333 33.9767 34.595 36.3067 38.6072 38.6797 39.5158 42.07 43.7511 45.2817 46.6567 48.3697 50.635 53.0031 55.7781 59.9108 63.0047 64.3172 61.2258 57.2761 52.4608 47.9467 46.6422 46.6631 46.655 48.0844 51.197 54.6575 57.3569 60.0436 62.8392 63.4278 59.9764 57.1367 54.0095 50.3675 46.8917 45.0172 43.6353 40.8567 38.285 35.8794 35.2642 33.41 32.2942 31.4117 30.5292 29.5156 28.1067 27.395 27.0419 26.9442 26.8367 27.0478 28.265 31.3392 34.5536 39.4175 45.5744 50.385 54.055 54.7722 53.6658 53.5825 53.4978 53.7028 53.7433 52.8839 53.2808 53.87 54.0119 54.7811 55.7342 56.1011 56.2739 56.5358 57.388 58.4819 56.6842 51.0239 46.118 43.9683
30.2433 30.1039 30.6836 31.45 32.2803 33.3233 35.415 37.8858 39.205 40.0492 40.1864 40.1914 40.1125 39.8878 39.0822 37.3975 35.7878 35.0733 33.7025 33.6483 34.4828 37.6842 41.8203 41.873 40.8667 41.3228 42.7358 44.2817 46.0483 48.1183 49.9983 52.195 54.9467 58.9117 61.7642 62.557 59.7275 56.1203 50.8033 46.5733 45.4919 45.4531 45.2692 45.5769 48.9514 53.1883 55.9364 58.9322 61.5583 63.3164 61.1617 57.8608 54.0336 50.4342 47.0375 45.1617 43.5592 40.5417 37.7061 36.1433 34.88 33.1583 31.6669 30.98 30.2889 29.3344 27.8967 27.3631 27.0006 26.915 26.7156 27.13 28.015 30.9069 34.0342 37.5325 43.0294 48.1636 52.3075 54.2486 53.8064 53.8075 53.8614 54.2667 54.8858 54.4397 54.3581 54.725 55.2156 56.3869 57.2783 57.2017 56.6075 56.5708 56.9939 57.2511 54.9367 49.0695 43.9517 42.6633
30.0175 30.1217 30.3842 30.84 31.5917 32.6675 34.02 35.8683 37.415 38.285 38.5258 38.655 38.6675 38.4425 37.9633 37.12 35.5433 34.8142 33.165 33.5825 34.4425 38.3175 42.2258 44.6017 43.985 43.36 43.5933 44.9125 46.5692 48.0825 49.47 51.595 54.4775 58.31 60.8633 60.9625 58.1625 54.15 48.4767 44.525 43.3983 42.6367 42.1425 42.2692 47.0975 52.1275 55.1742 58.1817 61.0075 63.4792 62.4492 59.74 54.9017 50.7567 47.38 45.2658 43.8642 41.0125 37.94 35.7692 34.175 33.0767 31.2425 30.4525 29.8083 28.95 27.7175 27.3767 27.2583 26.9475 26.6367 27.0542 27.595 30.965 35.2983 38.5475 42.5342 47.4283 50.9175 53.3817 53.5108 53.7425 54.2367 54.7308 56.1075 56.3425 56.1675 56.3675 57.6008 58.24 58.895 58.1 56.7575 56.62 56.4325 56.2117 52.4425 46.8775 41.8867 41.4675
30.0708 30.1492 30.3292 30.4592 31.0058 31.9005 32.7542 33.8661 35.3861 36.3 36.6972 36.8228 36.785 36.7167 36.4833 36.0092 35.1253 33.7758 33.0442 33.4347 34.6578 38.8258 42.48 45.2053 46.4158 45.1958 44.6064 46.1142 47.2081 48.1022 49.1917 51.0367 54.1319 57.5833 59.8389 58.8389 56.0892 51.3033 45.1292 42.9725 40.6297 39.78 39.4658 41.1169 46.7839 51.7083 54.5578 57.4325 60.49 63.0475 63.5672 61.3442 57.1947 51.3972 47.985 45.2297 43.8858 41.4083 38.4808 36.3033 33.9908 32.2881 31.1139 29.8833 29.2403 28.5628 27.5633 27.2347 27.03 26.6717 26.4203 26.6978 27.0708 30.6161 35.4222 39.9958 43.3306 46.5097 49.4775 51.9383 52.2861 53.19 54.1842 54.9825 57.3792 58.7869 58.6422 58.8225 59.1542 59.825 60.32 58.8969 56.7756 56.3858 55.9572 54.2986 50.09 45.3356 40.5925 40.4383
30.0367 30.0658 30.17 30.1792 30.4661 31.1294 31.6642 32.3086 33.1783 33.8083 34.7022 35.0025 34.94 34.9483 34.8772 34.5783 34.1142 32.1644 32.9883 33.2733 35.1139 39.1092 42.1975 45.0694 46.7767 47.4158 47.4544 47.4925 47.7931 48.6539 49.7675 51.1228 53.9933 56.9617 59.0939 57.4631 54.3158 48.4992 43.4197 41.08 39.6222 38.3492 38.5917 40.9703 46.2819 50.82 53.8567 56.9594 59.9092 62.745 64.4625 62.4917 60.2278 53.8103 49.6625 46.6356 43.2033 41.6792 38.6606 35.9397 33.7625 32.1478 30.9461 29.6317 28.6992 28.1172 27.3292 27.0619 26.7739 26.3675 26.3305 26.5381 26.9375 30.6328 34.4847 38.9733 42.1328 45.0161 48.135 50.5608 51.6158 52.6633 53.7108 54.9186 57.7933 60.0458 60.3472 60.5367 61.1831 62.3739 62.7275 60.4769 56.9653 56.0358 55.5606 52.8342 48.3167 44.3436 39.9114 39.525
30.0125 29.9975 30.015 30.015 30.0317 30.1783 30.72 31.4158 32.0067 32.435 32.8717 33.8133 33.44 33.0958 32.9308 33.005 33.1417 32.5883 32.885 33.2692 35.2475 38.8 41.8567 44.7358 46.635 48.0758 48.4217 48.7375 49.0533 49.6042 50.1425 50.91 53.5342 56.515 58.4958 56.4192 52.63 46.2867 41.5858 39.3325 37.9542 36.7283 37.5675 39.8775 45.05 50.0375 53.3 56.3242 59.3875 62.5342 65.2442 64.3875 62.1517 56.655 51.435 47.9358 44.2908 42.1225 39.4167 36.1533 33.9025 32.435 30.7783 29.61 28.3167 27.7383 26.93 26.6967 26.4408 25.8675 26.3692 26.8267 27.4425 30.5208 32.9233 37.1375 39.5142 44.4075 47.8025 50.2433 51.3608 52.4475 53.4967 54.7 57.7925 60.4725 61.8008 62.84 63.775 64.935 64.8475 61.9308 57.8792 55.4575 55.1483 50.86 47.705 43.2 39.27 38.5475
29.9717 29.9347 29.8711 29.88 29.8597 29.855 30.1092 30.68 31.3669 31.795 31.7606 33.1075 32.3275 32.0767 32.1775 32.3983 31.6317 31.9789 32.4942 33.5081 35.2464 38.1825 41.1519 44.1425 46.385 48.3969 49.4931 49.9908 50.4969 50.6447 50.9633 51.0958 52.5528 55.6808 57.6242 55.0517 50.0442 44.188 39.6756 37.7933 36.5847 35.5519 36.46 39.0556 43.9097 49.2092 52.5322 55.4292 58.7825 62.5761 65.8578 66.2875 64.9047 59.0983 52.8908 49.0736 45.0492 42.7325 39.2936 36.9781 34.5383 32.6305 30.8856 29.9092 28.0508 27.4692 26.6433 26.3286 26.0619 25.3175 26.0967 26.8486 27.4433 30.6325 34.1953 37.0308 39.1803 43.5656 46.1867 49.405 51.3683 52.1858 53.1297 54.28 57.6833 60.8283 63.2697 64.9142 66.2961 67.4392 66.6758 62.7125 58.65 54.7458 54.5083 49.6136 47.2975 41.9869 38.0897 37.52
29.9183 29.8703 29.7564 29.7375 29.7297 29.7508 29.865 30.1 30.4364 30.6267 30.853 32.6814 31.7225 31.7303 31.9661 31.5967 31.7328 32.0461 33.1142 33.8836 35.2917 38.005 40.8808 43.6475 46.35 49.0775 50.5017 51.3708 51.6053 51.3281 51.4817 51.6394 52.0425 54.4367 56.1808 53.3208 47.5267 41.9867 38.2339 36.2025 35.0822 34.4925 35.6833 38.4589 42.5525 47.4567 51.6539 54.7147 58.2575 62.3864 66.0497 67.4342 66.3075 61.8989 55.1092 50.5611 46.1956 42.9217 40.6436 37.8003 36.0692 33.0436 31.3208 29.4875 27.825 27.1417 26.3333 26.1764 26.0639 24.8425 25.8406 26.7445 27.2733 30.5425 33.1506 36.05 38.7036 41.3481 43.8592 46.2425 48.0303 51.04 52.6206 53.8139 57.395 61.4733 65.2142 66.7917 68.5928 69.87 67.8608 63.6072 59.2283 54.2817 53.2642 48.2886 46.4042 41.0031 37.2019 36.6817
29.8625 29.8058 29.6792 29.5975 29.6158 29.6267 29.6525 29.6575 30.3058 30.59 30.8242 31.1983 31.045 31.2583 31.0617 31.3875 31.98 32.8217 34.9275 34.9833 36.5 38.59 41.03 43.2875 45.825 48.975 51.0217 52.11 51.8983 51.6283 51.8 52.0217 52.4275 53.65 54.9433 52.1533 46.0625 40.9467 37.045 34.905 34.015 33.6683 34.995 37.6133 40.9392 45.82 50.9342 54.1675 57.6125 61.37 65.1958 67.46 67.195 63.8183 57.01 51.1975 47.445 43.2525 41.7642 37.7775 35.815 32.0275 30.5525 28.985 27.5217 26.865 26.0225 25.5883 25.4625 25.46 25.8533 26.38 26.9725 29.8317 31.7475 34.3875 36.3483 38.5233 40.6075 43.9708 47.3042 49.6025 52.2842 53.7083 57.065 61.555 65.8425 68.38 70.8133 72.185 68.4475 63.4433 58.5917 53.91 51.8575 47.8658 45.655 39.9442 36.4108 35.855
29.7983 29.7344 29.6117 29.4825 29.2089 29.5831 29.8608 29.9483 30.3267 30.595 30.1647 31.7945 32.0633 33.0086 32.6239 32.145 32.3189 33.5125 35.5117 37.0358 37.8917 39.2542 41.0292 43.04 45.1875 48.0211 50.8639 52.6617 52.5914 52.0744 52.2475 52.6275 52.9986 53.4967 53.9253 50.9483 45.8275 41.5553 37.0006 33.9117 33.0783 32.8525 34.1733 36.6039 39.9744 45.0792 49.9894 53.2119 56.7175 59.9008 63.6878 66.8358 67.8742 65.0572 58.6108 52.1019 48.1417 43.4708 41.3444 38.2797 34.8317 32.0628 29.8772 28.3617 27.21 26.7022 25.6283 25.185 25.3889 25.6817 25.5605 25.4628 26.2383 27.4319 30.5097 32.6542 34.6097 37 39.3517 40.8547 47.0739 49.3733 52.1256 53.9861 56.7392 61.7686 66.4444 69.6808 73.4922 73.2861 68.3883 62.7503 57.112 53.5967 49.6744 47.2014 44.0808 39.095 35.585 35.0825
29.6767 29.6206 29.4347 29.1975 29.0728 29.2064 29.945 30.0058 30.3614 30.4442 30.745 33.3942 34.525 35.2419 35.2445 34.3308 33.8908 33.9886 35.7008 37.9283 38.8558 39.6267 40.8808 42.7261 44.5117 47.0819 50.3697 52.2958 52.29 52.2653 52.935 53.2853 53.4117 53.4792 52.9619 50.4072 45.8692 41.8755 37.7731 33.0583 30.9297 31.2514 32.9108 35.605 39.3364 44.2617 48.855 52.0478 55.6892 58.7236 62.0564 65.3783 68.3864 66.6439 60.745 53.617 48.5319 43.8817 40.7675 38.3572 34.4092 32.2639 29.1989 27.7083 26.4956 26.2544 25.4608 25.2019 25.3525 24.385 24.7439 25.0692 25.1783 26.2208 30.1839 31.62 33.4825 36.4742 39.7417 44.3967 47.1486 49.5992 52.1594 54.2058 56.9058 60.5267 65.9714 69.9333 74.4869 72.9483 67.5475 61.9967 56.1725 51.875 48.0692 44.0058 41.9092 38.1667 35.015 34.5583
29.4975 29.4817 29.3375 29.115 29.0092 29.125 29.94 29.9758 30.1525 30.44 32.1358 35.5567 36.8975 37.6217 36.9933 36.0325 35.18 34.7792 36.06 37.9033 39.5767 40.425 41.14 42.5075 43.975 45.88 49.19 51.3825 51.8375 52.0025 53.3225 53.6342 53.6683 54 53.6192 50.1358 45.595 41.5375 37.6883 32.6525 30.0875 29.9742 31.66 34.6125 38.4317 43.06 47.7217 51.2442 54.16 56.8008 60.0325 63.645 66.6908 67.1675 61.975 54.7617 48.3908 44.3725 40.2708 38.6158 34.045 32.1908 29.8942 27.4275 26.3817 25.7142 24.955 24.9125 24.9425 24.085 24.5317 25.0667 25.3075 25.9317 30.0067 33.5275 35.9858 39.3658 42.9625 45.6592 47.5042 49.7975 51.7867 54.1792 56.685 60.2825 65.5142 69.3325 73.73 71.7242 66.9725 61.3292 54.335 49.24 45.7325 43.2417 40.7525 36.6467 33.7392 33.49
29.3225 29.3094 29.1833 28.9908 28.9053 28.9061 29.5975 29.9569 29.9436 30.6358 33.1697 36.6719 38.795 38.9806 38.2158 37.3217 36.2678 35.4211 36.5733 38.4325 39.8322 40.7358 41.7297 42.7528 43.7925 44.7281 47.5519 50.0233 51.3683 51.7703 53.2433 54.1025 54.8764 55.0708 54.9597 50.4228 45.3583 41.0703 37.3258 32.4467 29.7911 29.3928 30.33 33.5158 37.7589 42.2375 46.8161 50.4475 52.56 54.7503 57.7572 61.0242 63.7008 65.2703 62.2592 55.6439 48.5108 44.7925 40.3019 38.1467 33.7642 32.4844 30.0311 27.8508 26.4567 25.3461 24.6408 24.6536 24.6131 24.4725 24.6139 25.1003 25.52 26.1133 30.8656 34.6558 37.6308 41.2297 44.575 46.9133 48.9403 50.575 51.7833 54.2664 56.7392 59.5647 63.8861 67.8775 72.3244 70.9597 66.2975 60.377 54.2475 47.8967 45.118 42.6053 39.7917 35.4808 32.6161 32.3008
27.7517 29.2003 29.06 28.875 28.7636 28.7769 29.2717 29.9247 29.8167 30.2542 33.3583 37.2067 39.885 39.9189 39.7378 38.2458 37.1094 36.1267 36.7567 38.8422 39.9397 41.2575 42.4239 43.1831 44.0217 44.5311 46.1805 47.84 49.5842 51.3847 53.7608 55.155 55.2878 55.3017 55.1072 51.6689 46.2442 41.1222 37.1386 31.945 28.7806 27.7097 28.1108 32.355 37.4619 42.025 46.0089 49.1208 51.21 53.4894 56.0289 58.17 59.8014 61.5244 61.4125 55.9922 48.8847 45.12 40.4456 37.9094 34.1925 32.1019 29.0783 27.6642 25.7292 25.2106 24.9275 24.8653 24.7822 24.6742 24.6606 24.9861 25.6017 26.3117 30.5864 34.4608 38.2283 42.0767 45.4725 48.2225 49.9814 51.0858 52.0722 54.0003 56.0975 58.285 62.3225 66.9783 71.0106 70.5725 65.0142 59.235 53.2608 47.5308 44.7883 42.0358 39.035 35.2119 31.8408 31.2733
