ncols         601
nrows         39
xllcorner     746858.5234
yllcorner     541796.1043
cellsize      10.0
NODATA_value  -9999.0
348 347 347 347 347 348 348 348 348 350 353 354 355 355 355 355 355 355 356 356 356 356 357 357 358 358 359 359 360 361 363 364 364 364 365 365 364 365 365 365 365 365 365 365 365 366 366 366 367 368 368 369 369 370 370 371 372 372 373 374 374 375 376 376 376 376 376 375 375 374 373 373 372 371 370 369 369 368 367 367 366 366 365 365 364 364 363 363 363 362 362 362 362 361 361 361 362 362 363 364 365 365 366 366 366 366 366 365 364 363 363 362 361 361 361 360 360 360 360 360 360 361 361 362 363 364 365 366 366 367 367 368 370 371 373 375 377 378 379 380 380 380 379 379 378 377 376 376 375 374 374 373 373 372 371 371 370 370 369 369 368 368 367 367 366 365 365 364 364 363 363 363 363 363 363 364 365 366 367 368 370 371 373 375 376 377 377 377 377 377 376 376 375 374 374 374 373 374 374 374 374 375 375 376 376 376 377 377 378 378 378 378 378 378 377 377 377 377 377 377 377 377 377 377 376 376 376 376 376 376 376 375 375 374 374 373 372 371 370 369 368 367 366 366 366 365 365 365 365 365 365 365 365 365 365 365 365 365 366 366 367 368 369 370 371 372 374 375 376 377 378 379 380 381 381 382 382 383 383 382 382 382 382 381 380 380 379 379 378 378 378 377 377 376 376 375 375 374 373 372 371 370 369 369 369 369 369 369 370 369 368 367 367 369 371 373 375 375 376 376 375 373 371 368 365 365 366 367 368 369 370 370 371 371 372 373 373 373 374 374 374 375 375 375 375 375 375 375 374 373 372 372 371 370 369 369 368 368 367 367 366 366 365 366 367 368 369 369 370 371 372 372 373 374 374 375 375 376 377 377 377 377 377 378 378 378 379 379 380 380 380 381 381 381 381 381 380 380 378 376 373 372 371 371 371 371 370 370 370 370 370 370 370 370 371 371 371 372 372 373 374 374 375 375 376 377 377 378 379 380 380 380 380 380 381 381 382 382 382 382 381 381 380 379 379 378 377 376 376 376 375 375 374 374 374 374 374 374 374 374 374 374 374 374 375 375 375 376 378 378 379 379 379 380 382 383 384 385 385 385 386 386 387 387 387 387 388 388 388 388 388 389 389 389 389 390 390 390 390 390 390 390 390 390 390 390 390 390 390 390 390 390 390 390 390 389 388 387 387 387 387 388 388 388 389 389 389 389 390 390 390 391 391 391 391 391 391 391 391 391 390 389 388 387 386 385 385 385 385 385 386 385 384 382 381 380 380 380 380 380 380 379 379 379 379 379 379 379 379 379 379 379 378 377 376 375 375 375 375 375 375 375 375 373 372 372 371 372 372 372 372 372 372 372 372 372 372 371 371 371 371
348 347 347 347 347 348 348 349 349 350 351 353 355 355 356 356 356 356 356 356 356 356 357 357 359 360 361 362 363 364 364 365 365 365 365 365 365 365 366 366 366 366 366 366 366 366 366 367 367 368 368 369 369 370 371 372 372 373 375 375 376 376 377 377 377 376 376 375 374 374 373 372 372 371 370 369 368 368 367 367 367 366 366 365 365 364 364 363 363 363 362 362 362 362 362 362 362 363 363 364 365 365 366 366 366 366 366 365 364 363 363 362 362 361 361 361 360 360 360 361 361 361 362 362 363 364 366 366 367 368 368 370 371 373 375 376 378 379 380 380 380 380 379 378 378 377 376 376 375 374 374 373 373 372 371 371 370 370 369 369 368 368 367 367 366 366 365 365 364 364 363 363 363 364 364 364 365 366 367 368 370 371 373 375 376 377 378 378 378 377 377 376 375 374 374 374 374 374 374 375 375 376 376 376 377 377 378 378 379 379 379 378 378 378 378 378 378 378 378 378 378 378 377 377 377 377 377 377 376 376 376 375 375 374 374 373 372 371 370 368 367 366 366 366 366 366 366 366 366 366 366 366 366 366 365 365 365 366 366 366 366 367 368 370 371 373 374 375 376 377 379 380 380 381 382 382 383 383 383 383 383 382 382 381 381 380 380 379 379 379 378 378 377 377 376 376 375 374 373 372 371 371 370 370 370 371 371 371 371 370 369 368 366 367 369 371 374 375 376 376 376 375 374 371 368 367 366 367 368 368 369 370 371 371 372 372 373 373 374 374 374 375 375 375 375 375 375 375 374 373 372 372 371 371 370 369 369 368 368 367 367 366 366 366 367 368 369 370 371 372 372 373 374 375 375 376 376 377 377 377 377 378 378 378 378 378 379 380 380 381 381 381 381 381 381 381 381 379 377 375 373 372 372 371 371 371 371 371 371 370 370 370 371 371 371 371 372 372 373 373 374 375 375 376 376 377 378 379 380 380 381 381 380 381 381 382 382 382 382 382 381 381 380 379 378 377 377 376 376 375 375 375 375 375 375 375 375 375 375 375 375 375 375 375 375 375 375 376 378 379 379 379 379 380 380 382 384 385 385 385 386 386 386 387 387 388 388 388 388 388 389 389 389 389 390 390 390 390 390 390 390 390 390 390 390 390 390 390 390 390 390 390 390 390 390 390 389 389 387 387 388 388 389 389 389 389 390 390 390 391 391 391 392 392 392 392 392 391 391 390 389 388 387 386 385 385 385 385 385 386 386 385 383 381 380 380 380 380 380 380 379 379 379 379 379 379 379 379 379 379 379 378 377 376 375 375 375 375 375 375 375 374 374 373 372 371 371 372 372 372 372 372 372 372 372 372 371 371 371 371 371
348 347 347 347 347 348 349 349 349 350 351 352 354 355 356 356 356 356 356 356 356 356 357 358 360 361 362 363 364 365 366 366 366 366 366 366 366 366 366 367 367 367 367 367 367 367 367 367 368 368 369 369 370 370 371 372 373 374 376 377 377 377 377 377 377 376 376 375 374 374 373 372 372 371 370 369 369 368 368 367 367 367 366 365 365 365 364 364 363 363 363 362 362 362 362 362 362 363 364 364 365 366 366 366 366 366 366 365 364 363 363 362 362 361 361 361 361 361 361 361 361 361 362 363 364 365 366 367 368 369 370 371 373 374 376 378 379 380 380 380 380 380 379 378 378 377 376 376 375 374 374 373 373 372 371 371 370 370 369 369 368 368 367 367 366 366 365 365 364 364 364 364 364 364 364 364 365 366 367 368 370 372 373 375 377 378 378 378 378 378 377 376 375 375 374 374 374 375 375 376 376 377 377 377 378 378 379 379 379 379 379 379 379 379 379 379 379 379 379 378 378 378 378 378 378 377 377 377 376 376 375 375 374 374 373 372 371 370 369 368 367 367 367 366 366 366 366 367 367 367 366 366 366 366 366 366 366 366 366 366 366 367 368 370 371 373 374 376 377 378 379 380 381 382 382 383 384 384 384 384 383 383 382 382 381 381 380 380 380 379 379 378 378 377 377 376 375 374 373 372 372 371 370 371 372 372 372 372 372 371 370 368 366 366 367 369 372 374 375 376 376 376 375 374 371 369 367 367 368 368 369 370 371 371 372 372 373 374 374 374 375 375 375 375 375 375 375 375 374 374 373 372 372 371 370 370 369 368 368 367 367 367 366 366 367 368 369 370 371 372 373 374 375 375 376 376 377 377 377 378 378 378 378 378 378 379 380 380 381 381 381 381 381 381 381 381 381 379 377 375 373 373 372 372 372 371 371 371 371 371 371 371 371 371 371 372 372 373 374 374 375 375 375 376 377 377 378 379 380 381 381 381 381 381 382 382 382 382 382 382 381 380 380 379 378 377 376 376 376 376 376 375 375 375 375 375 376 376 375 375 375 375 375 375 375 375 375 377 378 379 379 379 379 380 381 382 384 385 385 386 386 386 386 387 387 388 388 388 388 388 389 389 389 389 390 390 390 390 390 390 390 390 390 390 390 390 390 390 390 390 390 390 390 390 390 390 389 389 388 388 388 389 389 390 390 390 390 390 391 391 391 392 392 392 392 392 392 391 390 390 389 388 387 386 385 385 385 385 386 386 386 385 383 381 380 380 380 380 380 380 379 379 379 379 379 379 379 379 379 379 378 377 376 375 375 374 374 374 374 374 374 374 373 373 372 371 372 372 372 372 372 372 372 372 372 371 371 371 371 371 371
348 347 347 347 347 348 349 350 350 350 351 352 354 355 356 356 356 356 356 356 356 357 357 359 361 362 363 365 366 366 367 367 367 367 367 367 367 367 367 367 368 368 368 368 368 368 368 368 368 369 369 369 370 371 372 373 374 375 377 378 378 378 378 377 377 376 375 375 374 373 373 372 372 371 370 370 369 369 368 368 367 367 366 366 366 365 365 364 364 363 363 363 362 362 362 363 363 363 364 365 365 366 366 367 367 366 366 365 364 363 363 362 362 361 361 361 361 361 361 361 361 362 362 363 364 365 366 367 369 370 371 373 375 376 378 379 380 380 381 380 380 379 379 378 377 377 376 376 375 374 374 373 373 372 372 371 370 370 369 369 368 368 367 367 366 366 366 365 365 364 364 364 364 364 364 365 365 366 367 368 370 372 374 375 377 378 379 379 378 378 377 377 376 375 375 375 375 375 376 377 377 378 378 379 379 379 380 380 380 380 380 380 380 379 379 379 379 379 379 379 379 379 379 378 378 378 377 376 376 375 374 374 374 373 372 371 369 369 368 368 367 367 367 367 367 367 367 367 367 367 367 367 367 366 366 366 366 366 366 366 367 367 368 370 372 373 375 376 378 379 380 381 381 382 383 384 384 385 385 384 384 383 383 382 382 381 381 380 380 380 379 379 378 378 377 376 375 374 373 373 372 372 371 372 373 373 373 373 373 372 371 369 367 366 366 367 369 371 374 375 376 376 376 375 374 372 369 368 368 368 369 370 370 371 372 372 373 374 374 374 375 375 375 375 376 375 375 375 374 374 373 373 372 371 371 370 369 369 368 368 367 367 367 367 368 369 370 371 371 373 374 375 375 376 376 377 377 377 378 378 378 378 378 379 379 380 380 381 381 381 381 381 381 381 381 381 381 379 376 375 374 373 373 372 372 372 372 372 371 371 371 371 371 372 372 372 373 374 374 375 375 376 376 377 377 378 379 380 380 381 381 381 381 381 382 382 383 382 382 381 381 380 379 378 377 377 376 376 376 376 376 376 375 376 376 376 376 376 376 376 375 375 375 375 375 375 376 377 378 379 379 379 379 380 382 383 384 385 385 386 386 386 387 387 387 388 388 389 388 389 389 389 389 390 390 390 390 390 390 390 390 390 390 390 390 390 390 390 390 390 390 390 390 390 390 389 389 388 388 389 389 390 390 390 390 390 390 391 391 391 392 392 392 392 392 392 391 391 390 389 388 387 386 385 385 385 385 385 386 386 386 385 384 382 380 380 380 380 380 380 379 379 379 379 379 379 379 379 379 378 377 375 375 374 374 374 373 373 374 374 374 374 373 373 372 372 372 372 372 372 372 372 372 372 371 371 371 371 371 371 371
348 347 347 347 347 348 349 350 351 351 351 352 354 355 355 355 356 356 356 356 356 357 358 360 362 364 365 366 367 367 367 367 367 367 368 368 367 368 368 368 368 368 369 369 369 369 369 369 369 369 370 370 370 371 372 373 374 376 378 379 379 379 378 378 377 376 375 374 374 373 373 372 372 371 371 370 370 369 369 368 368 367 367 367 366 366 365 365 364 364 363 363 363 363 363 363 363 364 364 365 366 366 367 367 367 367 366 365 364 363 363 362 362 362 361 361 361 361 361 361 361 362 363 364 365 366 367 368 370 372 373 375 376 378 379 380 381 381 381 380 380 379 379 378 377 377 376 376 375 374 374 373 373 372 372 371 371 370 369 369 368 368 367 367 366 366 366 366 365 365 364 364 364 364 364 365 365 366 367 369 370 372 374 376 377 378 379 379 379 378 378 377 376 376 375 375 376 376 377 377 378 379 379 379 380 380 380 381 381 381 381 381 380 380 380 380 380 380 380 380 379 379 379 379 378 377 376 375 375 374 374 373 373 372 371 370 369 368 368 368 368 368 367 367 367 367 367 368 368 368 368 367 367 367 367 367 367 367 367 367 367 368 369 370 372 374 375 377 378 379 380 381 382 383 384 385 386 386 386 386 385 384 383 383 382 382 381 381 381 380 380 379 379 378 377 376 375 375 374 373 373 372 372 372 373 374 374 373 373 372 372 370 367 367 366 367 368 369 372 374 375 376 377 376 376 374 372 370 369 369 369 370 371 371 372 373 373 374 374 375 375 375 375 376 376 376 375 375 374 374 373 373 372 372 371 370 370 369 369 368 368 367 367 367 368 369 370 371 372 373 374 375 375 376 376 377 377 378 378 378 379 379 379 379 380 380 381 381 381 381 382 382 382 381 381 381 381 379 376 375 374 373 373 373 373 372 372 372 372 372 372 372 372 372 372 373 373 374 375 375 376 376 377 377 378 378 379 380 381 381 381 382 381 382 382 382 383 382 382 381 380 380 378 378 377 377 376 376 377 376 376 376 376 376 376 377 377 377 376 376 376 376 376 376 375 376 376 377 378 379 379 379 380 381 383 384 384 384 385 386 386 387 387 387 388 388 388 389 389 389 389 389 389 390 390 390 390 390 390 390 390 390 390 390 390 390 390 390 390 390 390 390 390 390 389 389 389 388 389 389 390 390 390 390 391 391 391 391 391 392 392 392 392 392 392 391 391 390 389 388 387 387 386 385 385 385 385 385 386 386 385 385 384 382 381 380 380 380 380 379 379 379 379 379 379 379 379 379 379 377 376 375 374 374 374 373 373 373 373 373 373 373 373 373 372 372 372 372 372 372 372 372 372 372 372 371 371 371 372 371 371
348 348 347 347 347 348 350 351 351 352 351 352 354 354 355 355 355 355 356 356 356 358 360 362 363 365 366 367 367 368 368 368 368 368 368 368 368 368 368 369 369 369 369 370 370 370 370 370 370 370 370 370 371 372 373 374 375 377 378 379 379 379 379 378 376 375 375 374 373 373 373 372 372 371 371 370 370 370 369 369 369 368 368 367 367 366 366 365 365 364 364 363 363 363 363 363 363 364 365 366 366 367 367 367 367 367 366 365 364 363 363 362 362 362 361 361 361 361 361 361 362 363 364 365 366 367 368 370 371 373 375 377 378 380 381 381 381 381 381 380 380 379 378 378 377 377 376 376 375 375 374 373 373 372 372 371 371 370 369 369 368 368 367 367 366 366 366 366 365 365 365 365 365 365 365 365 365 366 367 369 370 372 374 376 377 378 379 379 379 379 378 377 376 376 376 376 376 377 378 378 379 379 380 380 380 380 381 381 382 382 382 382 381 381 381 380 380 380 380 380 380 380 380 379 378 377 375 375 374 373 373 372 371 371 371 370 369 369 369 369 368 368 368 368 368 368 368 368 368 368 368 368 368 368 367 367 367 367 367 367 368 368 369 371 372 374 376 377 379 380 381 381 382 384 385 386 387 388 388 387 386 385 384 384 383 382 382 382 381 381 380 380 379 378 377 376 376 375 374 374 373 373 373 373 374 374 374 374 373 373 372 370 368 368 367 367 367 368 369 371 374 376 377 377 377 376 375 373 370 369 369 370 371 371 372 373 373 374 374 375 375 375 376 376 376 376 376 375 374 374 373 373 372 372 371 371 370 370 369 369 369 368 367 367 368 369 370 371 372 373 374 375 375 376 376 377 377 378 378 379 379 379 379 380 380 380 381 381 381 382 382 382 382 381 381 381 381 379 377 376 375 374 374 373 373 373 373 373 372 372 372 372 372 372 373 373 374 374 375 376 376 377 377 378 378 379 380 380 381 381 382 382 382 382 383 383 382 382 382 381 380 379 378 378 377 377 377 377 377 377 377 377 377 377 377 377 377 377 377 377 376 376 376 376 376 376 376 377 379 379 379 380 380 382 383 383 383 384 385 386 386 387 387 387 388 388 388 389 389 389 389 389 390 390 390 390 390 390 390 390 390 390 390 390 390 390 390 390 391 391 391 390 390 390 390 389 389 389 389 389 390 390 390 391 391 391 391 392 392 392 392 392 392 392 391 391 390 389 388 388 387 386 385 385 385 385 385 386 386 386 385 384 383 382 381 380 380 380 380 379 379 379 379 379 379 379 379 378 377 376 375 375 374 374 373 373 373 373 372 372 373 372 372 372 372 372 372 372 372 372 372 372 372 372 372 372 371 371 371 371 371
348 348 348 347 347 348 350 351 352 352 352 353 354 354 355 355 355 355 356 356 357 359 361 363 364 365 367 368 368 368 368 368 368 368 368 368 368 368 369 369 369 370 370 370 371 371 371 371 371 371 371 372 372 373 374 375 376 377 379 379 380 380 379 378 377 375 375 374 373 373 373 372 372 371 371 371 371 370 370 369 369 368 368 368 367 367 366 366 365 365 364 364 363 363 363 363 364 364 365 366 367 367 367 368 367 367 366 365 364 364 363 362 362 362 362 361 361 361 361 362 362 363 365 366 367 368 370 371 373 375 377 378 380 381 382 382 382 381 381 380 379 379 378 378 377 376 376 376 375 375 374 374 373 372 372 371 371 370 370 369 368 368 367 367 367 366 366 366 365 365 365 365 365 365 365 365 365 366 368 369 371 373 374 376 378 379 379 380 379 379 378 378 377 376 376 376 377 377 378 379 379 380 380 380 381 381 382 382 382 383 383 383 382 381 381 381 381 381 381 381 380 380 380 379 378 377 375 374 374 373 373 372 371 371 371 370 370 370 369 369 369 369 369 369 369 369 369 369 369 369 369 369 368 368 368 368 368 368 368 368 368 369 369 371 373 374 376 378 379 380 381 382 383 384 386 387 388 388 389 388 387 386 385 384 383 383 382 382 382 381 380 380 380 379 378 377 376 375 375 374 374 374 374 374 374 374 374 374 373 373 372 371 369 368 368 368 368 368 368 370 372 374 376 377 377 377 377 375 372 371 370 370 371 371 372 373 373 374 374 375 375 376 376 376 376 376 376 375 375 374 374 373 373 372 372 371 371 370 370 369 369 368 368 368 369 370 370 371 372 373 374 375 375 376 376 377 377 378 379 379 379 379 380 380 380 381 381 381 382 382 382 382 382 381 381 381 381 380 379 377 375 374 374 374 374 373 373 373 373 373 372 372 373 373 373 374 374 375 375 376 377 377 378 378 379 379 380 381 381 382 382 382 382 382 383 383 382 382 381 380 379 379 378 378 377 377 378 377 377 377 377 377 377 377 378 378 378 378 377 377 377 376 376 376 376 376 376 377 378 379 379 380 381 382 383 383 383 384 385 386 386 387 387 387 388 388 388 389 389 389 389 389 390 390 390 390 390 390 390 390 390 390 390 390 390 390 390 391 391 391 391 391 390 390 390 390 389 389 390 390 390 391 391 391 391 392 392 392 393 393 393 392 392 391 391 390 389 389 388 387 386 386 385 385 385 385 386 386 386 385 385 384 383 382 381 381 380 380 380 380 379 379 379 379 379 379 379 378 376 376 375 375 374 374 373 373 373 372 372 372 372 372 372 372 372 372 372 372 372 372 372 372 372 372 372 372 372 371 371 371 371
348 348 348 348 347 348 351 352 353 353 353 354 354 354 354 355 355 355 356 357 358 360 362 363 365 366 367 368 368 368 368 368 368 368 368 368 368 369 369 369 370 370 371 371 371 372 372 372 372 372 373 373 374 375 376 377 378 378 379 380 380 380 380 379 377 376 375 374 373 373 373 372 372 372 372 371 371 371 370 370 369 369 368 368 368 367 367 366 366 365 365 364 364 364 364 364 364 365 366 366 367 367 368 368 368 367 366 365 364 364 363 363 362 362 362 362 361 361 361 362 363 364 366 367 369 370 371 373 374 376 378 380 381 382 382 382 382 381 381 380 379 379 378 377 377 376 376 376 375 375 374 374 373 373 372 372 371 370 370 369 368 368 368 367 367 366 366 366 366 365 365 365 365 365 365 365 366 367 368 369 371 373 375 376 378 379 380 380 380 379 379 378 377 377 377 377 377 378 379 379 380 380 381 381 381 382 382 383 383 384 384 383 383 382 382 382 381 381 381 381 381 381 380 379 378 376 375 374 374 373 373 372 372 371 371 371 370 370 370 370 369 369 369 369 370 370 370 369 369 369 369 369 369 369 369 368 368 368 368 368 369 369 369 371 373 375 377 378 380 381 382 383 384 385 386 387 389 389 389 389 388 387 386 385 384 383 383 383 382 382 381 380 380 379 378 377 377 376 375 375 374 374 375 375 375 375 374 374 374 373 372 371 370 369 369 369 369 368 368 369 370 372 374 376 377 377 377 376 375 374 371 370 371 371 372 373 373 374 374 375 375 376 376 376 376 376 376 376 375 374 374 373 373 372 372 371 371 371 370 370 370 369 368 369 369 370 371 372 372 373 374 374 375 376 376 377 377 378 379 380 380 380 380 381 381 381 381 382 382 382 382 381 381 381 381 381 381 381 380 378 376 375 375 374 374 374 374 374 373 373 373 373 373 373 374 374 375 375 376 376 377 378 378 379 379 380 381 381 382 382 382 382 382 383 383 383 382 381 380 380 379 378 378 378 378 378 378 378 377 377 378 378 378 378 378 378 378 378 378 377 377 377 377 377 376 376 376 377 377 378 379 380 381 382 383 383 383 384 385 385 385 386 387 387 388 389 389 389 389 389 389 389 390 390 390 390 390 390 390 390 390 390 390 390 390 390 390 390 390 391 391 391 390 390 390 390 390 390 390 391 391 391 392 392 392 392 392 393 393 393 393 392 392 391 390 389 389 388 387 387 386 385 385 385 385 386 386 386 386 385 384 383 383 382 382 381 380 380 381 380 380 379 379 379 379 379 378 377 377 376 375 375 374 374 373 373 373 373 372 372 372 372 372 372 372 372 372 372 372 372 372 372 372 372 372 372 372 371 372 371 371
348 349 349 349 348 350 351 352 353 353 354 354 354 354 355 355 355 356 357 358 358 360 362 364 365 366 367 368 368 368 369 369 369 368 368 368 369 369 369 370 370 371 371 371 372 372 373 373 373 373 374 375 376 377 378 379 379 380 380 380 381 380 380 379 377 376 375 374 374 373 373 373 372 372 372 372 371 371 371 370 370 369 369 368 368 367 367 366 366 365 365 364 364 364 364 364 364 365 366 367 367 368 368 368 368 367 366 365 365 364 363 363 363 362 362 362 362 362 362 362 363 365 367 368 370 371 372 374 375 377 379 380 382 382 382 382 382 381 380 380 379 379 378 377 377 376 376 376 375 375 374 374 373 373 372 372 371 370 370 369 369 368 368 367 367 367 367 366 366 366 365 365 365 365 365 365 366 367 368 370 372 373 375 377 378 379 380 380 380 380 379 378 378 377 377 377 378 378 379 380 380 381 381 382 382 383 383 384 384 384 385 384 383 383 382 382 382 382 382 382 382 381 381 379 377 376 375 374 374 373 373 373 372 372 371 371 371 371 370 370 370 370 370 371 371 371 371 370 370 370 370 370 370 369 369 369 369 369 369 369 369 369 369 371 373 375 377 378 380 381 382 383 384 385 387 388 389 389 389 389 388 388 386 385 385 384 384 383 383 382 381 381 380 379 378 378 377 376 376 375 375 375 375 375 375 375 375 374 373 372 372 371 370 370 370 370 370 369 369 369 369 371 373 375 376 377 377 377 377 375 373 372 371 372 372 373 374 374 374 375 375 376 376 376 377 377 377 376 376 375 374 373 373 372 372 372 371 371 371 370 370 369 369 369 370 370 371 372 373 373 374 375 375 376 377 377 378 378 379 380 380 381 381 381 381 381 382 382 382 382 382 381 381 381 381 381 381 381 381 379 377 376 375 375 375 374 374 374 374 374 374 374 374 374 374 375 375 376 376 377 378 378 379 379 380 381 381 382 382 382 382 382 383 383 383 382 382 381 380 379 379 378 378 378 378 378 378 378 378 378 378 378 378 379 379 379 379 379 378 378 378 377 377 377 377 377 377 377 377 378 379 380 381 382 382 383 383 384 385 385 385 386 386 387 388 388 388 389 389 389 389 389 389 389 390 390 390 390 390 390 390 390 390 390 390 390 390 390 391 391 391 391 391 391 390 391 391 391 391 391 392 392 392 393 393 393 393 393 393 393 392 392 392 391 390 389 388 388 387 386 386 385 385 385 386 386 386 386 385 384 384 383 382 382 382 381 380 380 381 381 380 380 379 379 379 378 378 377 377 376 376 375 375 374 374 373 373 373 372 372 372 372 372 372 372 372 372 372 371 372 372 372 372 372 372 372 372 371 372 371 371
349 349 349 350 351 351 352 353 353 353 353 354 354 355 355 356 356 357 357 358 358 360 362 364 365 366 368 368 368 368 368 368 368 368 369 369 369 369 369 370 370 371 371 372 372 373 373 374 374 375 375 376 377 378 379 380 381 381 381 381 381 380 380 379 378 376 375 374 374 374 373 373 373 373 373 372 372 372 371 371 370 369 369 368 368 367 367 366 366 365 365 365 364 364 364 365 365 365 366 367 368 368 368 368 368 367 366 365 365 364 364 363 363 362 362 362 362 362 362 362 364 365 367 369 370 372 373 375 376 377 379 380 382 382 382 382 382 381 380 380 379 378 378 377 377 376 376 376 375 375 374 374 373 373 372 372 371 371 370 369 369 368 368 368 367 367 367 367 366 366 366 366 366 366 365 366 366 367 368 370 372 374 375 377 379 380 380 381 381 380 380 379 378 378 378 378 378 379 380 380 381 381 382 383 383 384 384 385 385 385 385 385 384 383 383 382 382 382 382 382 383 382 381 379 377 376 375 374 374 374 373 373 373 373 372 372 372 372 371 371 371 371 372 372 373 373 373 372 371 370 370 370 370 370 370 370 370 370 370 370 370 370 370 371 372 374 377 379 380 381 382 383 384 385 387 388 389 389 389 389 389 388 387 386 385 385 384 384 383 382 382 381 380 380 379 378 378 377 376 376 376 376 376 376 376 376 375 374 372 372 371 371 371 371 371 371 371 370 370 370 370 370 371 373 375 376 377 378 378 377 376 374 372 372 373 373 374 374 375 375 375 376 376 377 377 377 377 377 377 376 374 374 373 373 372 372 372 371 371 371 370 370 369 369 370 371 372 372 373 374 374 375 376 377 377 378 378 379 380 380 381 381 381 381 381 382 382 382 382 382 382 381 381 381 381 381 381 381 381 380 378 377 376 375 375 375 375 374 374 374 374 374 374 375 375 375 376 376 377 377 378 379 379 380 382 382 382 382 382 382 383 383 383 383 383 382 381 381 380 379 379 379 378 379 379 379 378 378 378 378 378 378 379 379 379 380 379 379 379 378 378 378 377 377 377 377 377 377 377 378 379 380 381 382 382 383 383 384 385 385 385 386 386 386 386 387 388 389 389 389 389 389 389 389 390 390 390 390 390 390 390 390 390 390 390 390 390 390 391 391 391 391 391 391 391 391 392 392 392 392 393 393 393 393 393 393 393 393 393 393 392 392 391 390 390 389 388 387 387 386 386 385 385 385 386 386 386 385 384 384 384 383 382 382 382 381 381 381 381 381 381 380 379 379 378 378 377 377 377 376 376 375 375 374 374 373 373 373 372 372 372 372 372 372 372 372 372 372 371 372 372 372 372 372 372 372 371 371 372 371 370
349 349 350 350 352 352 352 353 353 353 353 354 354 355 355 356 356 357 357 358 358 360 362 364 365 367 368 368 368 368 368 368 368 368 368 369 369 369 370 370 371 371 372 372 373 373 374 374 375 375 376 378 379 380 381 382 382 383 382 382 381 381 380 379 378 376 375 375 374 374 374 374 373 373 373 373 372 372 371 371 370 369 369 368 368 367 367 366 366 366 365 365 365 365 365 365 365 366 367 368 368 369 369 369 368 368 367 366 365 364 364 363 363 363 362 362 362 362 362 363 364 366 368 369 371 372 373 375 376 377 379 380 381 382 382 382 381 381 380 379 379 378 378 377 377 376 376 376 375 375 374 374 373 373 372 372 371 371 370 369 369 368 368 368 367 367 367 367 367 366 366 366 366 366 366 366 366 367 369 371 372 374 376 378 379 380 381 381 381 381 381 380 379 378 378 378 378 379 380 381 381 382 383 384 384 385 386 386 386 386 386 385 384 384 383 383 383 383 383 383 383 382 381 379 377 376 375 375 375 374 374 374 374 373 373 373 373 373 372 372 372 372 373 374 375 375 374 373 371 371 371 371 371 371 371 371 371 371 371 371 371 371 371 371 372 374 377 379 380 381 382 383 384 385 387 388 389 389 389 389 389 389 388 387 386 386 385 384 383 383 382 382 381 380 379 379 379 378 377 377 377 377 377 377 377 376 375 374 373 372 372 372 372 372 372 372 371 371 371 371 371 371 371 372 373 375 376 377 378 378 378 376 374 373 373 373 374 374 375 375 376 376 377 377 378 378 378 378 377 376 375 374 373 373 373 372 372 372 371 371 371 370 370 370 370 371 372 373 373 374 375 376 377 378 378 379 379 380 380 381 381 381 381 381 382 382 382 382 382 381 381 381 381 381 381 381 381 381 381 380 378 377 376 376 376 375 375 375 375 375 375 375 375 375 375 376 376 377 377 378 379 379 380 381 382 383 383 383 383 383 383 383 383 383 383 382 381 381 380 379 379 379 379 379 379 379 379 379 379 379 379 379 380 380 380 380 380 380 379 379 379 378 378 377 377 377 377 377 377 378 380 381 381 382 382 382 383 383 384 385 385 385 386 386 386 387 388 388 389 389 389 389 389 389 390 390 390 390 390 390 390 390 390 390 390 390 390 391 391 391 391 391 391 391 392 392 392 393 393 393 393 394 394 394 394 394 394 393 393 393 392 391 391 390 389 389 388 387 387 386 386 385 385 385 386 386 385 385 384 384 383 383 382 382 382 382 382 381 381 381 381 380 379 378 378 378 377 377 377 376 376 375 375 374 374 373 373 373 373 372 372 372 372 372 372 372 372 372 372 372 372 372 372 372 372 371 371 371 371 371 370
349 349 349 350 351 352 352 352 353 353 353 354 354 355 355 356 356 357 357 358 359 360 363 364 366 367 368 368 368 368 368 368 368 368 368 369 369 369 370 370 370 371 372 372 373 373 374 375 375 376 377 379 380 381 382 383 384 384 384 383 382 381 380 379 377 376 376 375 375 374 374 374 374 374 373 373 373 372 371 370 370 369 368 368 367 367 367 366 366 366 365 365 365 365 365 365 366 366 367 368 369 369 369 369 368 368 367 366 365 365 364 364 363 363 363 362 362 362 362 363 364 366 368 369 371 372 374 375 376 377 378 379 381 381 382 382 381 381 380 379 379 378 378 377 377 376 376 376 375 375 374 374 373 373 372 372 371 371 370 370 369 369 368 368 368 367 367 367 367 367 366 366 366 366 366 366 367 368 369 371 373 374 376 378 380 381 382 382 382 382 381 380 379 379 379 379 379 380 381 381 382 383 384 385 386 386 387 387 387 387 386 386 385 384 384 384 384 384 384 384 384 383 381 379 377 376 376 375 375 375 375 374 374 374 374 374 374 374 373 373 373 374 374 375 376 376 376 374 372 372 372 372 372 372 371 371 371 371 372 372 372 372 372 372 373 375 377 379 380 381 382 383 384 385 387 388 389 389 389 390 390 390 389 388 387 387 386 385 384 383 383 382 381 381 380 380 379 379 378 378 378 377 377 377 377 376 375 374 375 374 373 373 373 373 373 372 372 372 372 372 372 371 371 371 372 373 375 376 378 378 378 377 377 375 374 374 374 375 375 376 376 377 378 378 378 379 379 379 378 377 376 375 374 373 373 373 373 372 372 371 371 371 370 370 370 371 372 373 374 375 376 377 378 378 379 379 380 380 381 381 381 382 382 382 382 382 382 382 382 381 381 381 381 381 381 381 381 381 381 380 378 377 377 376 376 376 376 375 375 375 376 376 376 376 376 376 377 377 378 379 379 380 380 381 382 383 383 383 383 383 384 384 384 384 383 382 381 381 380 380 379 379 380 380 380 380 380 380 380 380 380 380 381 381 381 381 381 380 380 379 379 379 378 378 378 377 377 377 377 378 380 381 381 382 382 382 382 383 384 385 385 385 386 386 386 387 387 388 388 388 388 389 389 389 389 390 390 390 390 390 390 390 390 390 390 391 391 391 391 391 391 392 392 392 392 393 393 393 394 394 394 394 394 394 394 394 394 393 393 392 392 391 390 390 389 388 388 387 387 386 386 386 385 386 386 386 385 385 385 384 383 383 382 382 383 382 382 382 382 381 381 380 379 378 378 378 377 377 377 376 376 376 375 374 374 374 373 373 373 372 372 372 372 372 372 372 372 372 372 372 372 372 372 372 371 371 371 371 370 370 370
349 350 350 351 352 352 352 352 352 353 353 353 354 354 355 356 357 357 358 358 360 361 363 365 366 367 367 368 368 368 368 368 368 368 368 368 369 369 369 370 370 371 372 372 373 373 374 375 376 377 378 379 380 382 383 384 385 386 385 384 383 382 380 379 378 377 376 375 375 375 374 374 374 374 374 373 372 371 371 370 369 369 368 368 367 367 367 366 366 366 366 366 365 365 365 366 366 367 368 369 369 369 369 369 368 368 367 367 366 365 364 364 363 363 363 363 362 362 362 363 364 366 368 369 371 372 373 375 376 377 378 379 380 381 381 381 381 381 380 379 379 378 378 377 377 376 376 375 375 375 374 374 373 373 372 372 371 371 370 370 369 369 369 369 368 368 368 367 367 367 367 366 366 366 366 366 367 368 370 371 373 375 377 379 380 381 382 382 382 382 382 381 380 379 379 379 379 380 381 382 383 384 385 386 387 387 388 388 387 387 387 386 385 385 384 384 384 385 385 385 384 383 381 379 377 376 376 376 376 376 375 375 375 375 375 375 375 375 375 375 375 375 376 376 377 377 376 375 373 372 372 372 372 372 372 372 372 372 372 372 372 372 373 373 373 375 377 379 380 381 382 383 384 385 386 387 388 389 389 390 390 390 390 389 388 387 387 385 384 384 383 383 382 381 381 380 380 379 379 378 378 378 378 378 377 376 375 375 376 375 375 374 374 374 374 373 373 373 373 373 372 372 372 372 372 372 374 375 377 378 378 378 378 377 375 375 375 375 376 376 377 377 378 379 379 379 379 379 378 377 376 375 374 374 373 373 373 373 372 372 372 371 371 371 370 371 372 373 374 375 376 377 378 379 379 380 380 380 381 381 382 382 382 382 382 382 382 382 382 382 381 381 381 381 381 381 381 381 381 380 378 377 377 377 377 376 376 376 376 376 376 376 376 376 376 377 377 378 378 379 380 380 381 381 382 383 383 383 383 384 384 384 384 384 383 383 382 381 380 380 380 380 380 380 381 381 381 381 381 381 381 381 381 382 382 381 381 381 380 380 379 379 379 378 378 378 378 377 377 378 379 380 381 382 382 382 382 383 383 384 384 385 385 386 386 387 387 387 387 388 388 388 389 389 389 389 390 390 390 390 390 390 390 390 390 390 391 391 391 391 392 392 392 393 393 393 394 394 394 394 394 394 394 394 394 394 393 393 392 392 391 390 390 389 389 388 388 387 386 386 386 386 386 386 386 386 385 385 384 384 383 382 383 383 383 383 383 382 382 381 381 380 379 378 378 378 377 377 377 376 376 376 375 375 374 374 373 373 373 373 372 372 372 372 372 372 372 372 371 371 371 371 372 371 371 371 371 371 370 370 370
350 351 351 351 352 352 352 352 352 352 353 353 353 354 355 356 357 358 358 359 361 362 364 365 366 366 367 367 367 367 367 367 368 368 368 368 368 369 369 370 370 371 372 372 373 374 374 375 376 377 379 380 381 383 384 385 387 387 387 386 384 383 382 380 379 377 376 375 375 375 375 375 374 374 373 373 372 371 370 369 369 368 368 368 367 367 367 366 366 366 366 366 366 366 366 366 366 367 368 369 370 370 369 369 369 368 367 367 366 365 365 364 364 363 363 363 363 362 362 363 364 365 367 369 371 372 373 374 376 376 377 378 379 380 380 381 381 380 380 379 379 378 378 377 377 376 376 375 375 375 374 374 373 373 372 372 371 371 370 370 370 370 370 370 369 369 368 368 368 367 367 367 366 366 366 367 367 368 370 372 374 376 378 380 381 382 383 383 383 383 382 381 380 380 380 380 380 380 381 382 383 385 386 387 387 388 388 388 387 387 387 386 386 385 385 385 385 385 385 385 384 383 380 378 377 377 377 376 376 376 376 376 376 376 376 376 376 376 376 376 376 376 377 377 378 377 376 375 374 373 373 373 373 373 373 373 372 373 373 373 373 373 374 374 374 375 378 379 380 381 382 383 384 385 386 387 388 389 390 390 391 391 390 390 389 388 387 386 385 384 384 383 382 382 381 381 380 380 379 379 379 379 379 378 377 377 376 376 376 376 375 375 375 375 374 374 374 374 373 373 373 373 372 372 372 372 373 374 375 377 378 378 378 378 377 376 376 375 376 376 377 378 379 379 380 380 380 379 378 377 376 375 375 374 374 374 373 373 373 372 372 372 371 371 370 371 372 373 374 375 376 377 378 379 379 380 380 381 381 381 382 382 382 382 383 383 383 382 382 382 382 381 381 381 381 381 381 381 381 380 379 378 377 377 377 377 377 376 376 376 376 376 376 377 377 377 378 378 379 379 380 380 381 381 382 382 382 383 384 384 385 384 384 384 383 383 382 381 381 380 380 380 380 381 381 381 381 382 382 382 382 382 382 382 382 382 382 381 381 380 380 379 379 379 378 378 378 377 377 377 378 379 381 382 382 382 382 382 383 383 383 384 385 385 386 386 387 387 387 387 387 388 388 388 389 389 389 390 390 390 390 390 390 390 390 390 390 391 391 392 392 393 393 393 394 394 394 394 394 394 394 394 394 394 394 393 393 392 392 391 391 390 389 389 388 388 387 387 386 386 386 386 386 386 386 386 385 385 384 383 383 383 383 383 383 383 382 382 382 381 380 379 379 379 378 378 377 377 377 376 376 376 375 375 374 374 374 373 373 373 372 372 372 372 372 372 372 372 371 371 371 371 371 371 371 371 371 371 370 370 370
350 351 351 351 351 351 352 352 352 352 352 353 353 354 355 356 357 358 358 359 361 362 364 365 366 366 367 367 367 367 367 367 367 367 368 368 368 369 369 370 370 371 372 372 373 374 374 375 376 378 379 380 382 383 385 386 387 387 387 386 385 383 382 381 379 378 376 376 375 375 375 374 374 373 373 372 371 370 369 369 369 368 368 367 367 367 367 366 366 366 366 366 366 366 366 366 367 368 369 370 370 370 370 369 369 368 368 367 366 366 365 364 364 364 363 363 363 363 362 363 363 365 367 369 370 372 373 374 375 376 377 377 378 379 379 380 380 380 380 379 379 378 378 377 377 376 376 376 375 375 374 374 373 373 372 372 371 371 371 370 370 371 371 371 370 370 369 368 368 367 367 367 367 367 367 367 368 369 371 373 375 377 379 380 382 383 383 383 384 383 383 382 381 380 380 380 380 381 381 382 383 385 386 387 388 388 388 388 388 387 387 387 386 386 386 386 386 386 386 385 384 382 380 379 378 377 377 377 377 377 376 376 376 377 377 377 377 377 377 377 377 377 378 378 378 378 376 376 375 374 374 374 374 374 373 373 373 373 374 374 374 374 375 375 375 376 378 379 380 381 382 383 383 385 386 387 388 389 390 390 391 391 391 390 389 389 388 387 385 385 384 383 383 382 382 381 381 380 380 380 380 379 379 378 377 377 377 377 377 377 376 376 375 375 375 375 375 374 374 374 374 373 373 373 372 372 372 373 374 376 377 378 378 379 378 378 377 376 376 377 378 378 379 380 380 380 380 379 379 378 377 376 375 375 374 374 374 373 373 373 373 372 372 371 370 371 373 374 375 375 376 377 378 379 379 380 380 381 381 382 382 382 383 383 383 383 383 383 383 382 382 382 382 381 381 381 381 381 381 380 380 379 378 378 378 378 377 377 377 377 377 377 377 377 377 378 379 379 379 380 380 381 381 382 382 383 383 384 385 385 385 384 384 384 384 383 382 382 381 381 381 381 381 381 381 382 382 382 382 382 383 383 383 383 383 382 382 382 381 381 380 380 379 379 379 379 378 378 377 377 377 379 381 381 382 382 382 382 382 382 383 383 384 384 385 385 386 386 386 387 387 387 387 388 388 389 389 389 390 390 390 390 390 390 390 390 391 391 392 392 393 393 394 394 394 394 395 395 395 395 395 394 394 394 393 393 392 392 391 391 390 389 389 388 388 387 387 386 386 386 386 386 386 386 385 385 385 384 383 383 383 383 383 383 383 383 382 382 381 380 379 379 380 379 378 378 377 377 377 376 376 376 376 375 375 375 375 374 373 373 372 372 372 372 372 372 372 372 371 371 371 372 372 371 371 371 371 371 371 371 370
351 351 351 351 350 350 351 351 351 352 352 353 353 354 355 356 357 358 358 359 360 362 364 365 366 366 366 367 366 366 366 367 367 367 367 368 368 369 369 370 370 371 371 372 373 374 374 375 376 378 379 381 383 384 385 386 387 387 386 385 384 383 382 381 379 378 377 376 375 375 374 374 373 373 372 371 370 370 369 369 368 368 368 368 367 367 367 367 367 367 367 366 366 366 366 367 368 368 370 370 370 370 370 370 369 369 368 367 367 366 365 365 364 364 364 363 363 363 363 363 363 364 366 368 369 371 372 373 374 375 376 376 377 378 378 379 379 379 379 379 379 378 378 377 377 376 376 376 375 375 374 374 373 373 372 372 372 371 371 371 371 372 372 372 371 371 370 369 368 368 367 367 367 367 367 368 368 370 371 373 375 377 379 381 383 383 384 384 384 384 383 383 381 381 381 381 381 381 382 382 383 384 386 387 387 388 388 388 388 388 387 387 387 387 386 386 386 386 386 385 384 382 380 379 379 378 378 378 377 377 377 377 377 378 378 378 378 378 378 378 378 378 379 379 379 378 377 376 376 376 375 375 375 375 374 374 374 374 375 375 376 376 376 376 377 377 378 378 379 380 382 383 384 385 386 387 388 389 390 391 392 392 391 391 390 389 388 387 386 385 385 384 383 383 382 382 381 381 381 380 380 380 379 379 378 378 378 378 378 377 377 376 376 376 376 376 375 375 375 375 375 374 373 373 373 373 373 373 373 374 376 377 378 379 379 379 378 378 377 377 378 379 379 380 380 380 380 380 379 378 377 376 376 375 375 374 374 374 374 373 373 373 372 372 371 372 373 374 375 376 376 377 378 379 379 380 381 381 382 382 382 383 383 383 383 383 383 383 383 383 382 382 382 382 382 382 382 382 382 381 381 380 379 378 378 378 378 378 377 377 377 377 378 378 378 379 381 381 380 380 381 381 382 383 383 383 384 384 385 385 385 385 384 384 384 383 383 382 381 381 381 381 382 382 382 382 382 382 383 383 383 383 383 383 383 383 382 382 381 381 380 380 380 380 379 379 379 378 377 377 378 379 381 381 382 382 382 382 382 382 383 383 383 383 384 384 384 385 385 386 386 386 386 387 388 388 389 389 390 390 390 390 390 390 390 391 391 392 393 393 394 394 394 395 395 395 395 395 395 395 395 394 394 393 392 392 391 391 390 390 389 389 388 388 387 387 386 386 386 386 386 386 386 385 384 384 384 383 383 383 383 383 383 383 383 382 382 381 380 379 380 380 380 379 378 378 378 377 377 376 376 376 376 376 376 376 376 375 373 373 372 372 372 372 372 372 372 372 372 372 372 372 372 371 371 371 371 371 371 371 371
351 351 351 351 350 350 351 351 351 352 352 353 353 354 355 356 356 357 358 359 359 361 363 364 365 366 366 366 366 366 366 366 367 367 367 368 368 368 369 370 370 371 371 372 373 374 374 375 376 378 379 381 383 384 385 386 386 386 385 385 384 383 382 381 379 378 377 376 375 374 374 373 373 372 371 370 370 369 369 369 369 368 368 368 368 367 367 367 367 367 367 367 367 367 367 367 368 369 370 371 371 371 370 370 369 369 368 368 367 366 366 365 365 364 364 364 364 363 363 363 363 364 365 367 368 370 371 372 373 374 374 375 376 377 377 378 378 379 379 379 379 378 378 377 377 377 376 376 375 375 375 374 373 373 373 372 372 372 372 372 372 372 373 373 372 371 370 369 369 368 368 368 368 368 368 368 369 370 372 374 376 378 380 382 383 384 385 385 385 385 384 383 382 382 381 381 381 382 382 383 383 384 386 387 388 388 388 388 388 388 388 388 387 387 387 387 387 387 386 386 385 383 381 380 379 379 379 379 379 378 378 378 378 379 379 379 379 379 379 380 379 380 380 379 379 378 378 377 377 377 376 376 377 376 375 375 375 375 376 377 377 377 377 377 378 378 378 379 379 380 382 383 384 385 386 387 388 389 390 391 392 392 391 391 390 389 388 387 386 386 385 384 384 383 383 383 382 382 382 381 381 380 380 379 379 379 379 379 378 378 377 377 377 377 376 376 376 376 376 376 376 375 374 374 373 373 373 373 373 374 375 376 377 378 379 379 379 379 378 378 378 379 380 380 380 380 380 380 380 379 378 377 376 376 375 375 375 374 374 374 374 373 373 372 372 372 373 374 375 376 377 377 378 379 380 380 381 381 382 382 382 383 383 383 384 384 384 384 384 383 383 383 383 383 383 383 383 383 383 382 381 380 379 379 379 379 378 378 378 378 378 378 378 379 379 380 382 382 381 381 381 382 383 383 384 384 385 385 385 385 385 384 384 384 384 384 383 383 382 382 382 382 382 382 382 382 383 383 383 383 383 383 383 383 383 383 383 382 382 381 381 380 380 380 380 380 379 379 378 378 379 380 381 381 382 382 382 382 382 382 383 383 383 383 383 383 384 384 385 385 386 386 386 387 387 388 389 389 389 390 390 390 390 390 391 392 392 393 394 394 394 395 395 395 395 395 395 395 395 395 394 394 393 392 392 391 391 390 390 389 389 388 388 387 387 386 386 386 386 386 386 386 385 385 384 383 383 383 383 383 383 383 383 383 383 382 381 380 379 379 380 380 379 379 378 378 377 377 377 376 376 376 377 377 377 376 376 375 373 373 372 372 372 372 372 372 372 372 372 372 372 372 372 372 372 372 372 372 372 372 372
351 351 351 351 351 351 351 351 352 352 352 353 353 354 355 356 356 357 358 359 359 361 363 364 364 365 365 366 366 366 366 366 366 367 367 367 368 368 369 369 370 371 371 372 373 374 374 375 376 378 379 381 382 383 384 385 385 385 384 384 383 382 382 380 379 378 377 375 374 374 373 373 372 371 371 370 370 370 369 369 369 369 369 368 368 368 368 368 367 367 367 367 367 367 367 368 369 370 371 371 371 371 370 370 370 369 369 368 367 367 366 365 365 365 364 364 364 364 364 363 363 364 364 366 367 369 370 371 372 372 373 373 374 375 376 377 378 378 378 378 378 378 378 377 377 377 376 376 376 375 375 374 374 373 373 372 372 372 372 372 373 373 374 373 373 372 371 370 369 369 368 368 368 368 368 369 369 371 372 374 376 378 381 382 384 385 385 385 385 385 385 384 383 382 382 382 382 382 383 383 384 385 386 387 388 388 388 388 389 388 388 388 388 388 388 388 387 387 387 386 385 384 382 381 380 380 381 381 380 380 379 379 379 379 380 380 380 380 381 381 381 381 381 380 380 379 379 379 378 378 378 378 378 378 376 376 376 376 377 378 378 378 378 378 379 379 380 380 381 381 382 383 384 384 385 386 388 389 390 391 392 392 391 391 390 390 389 388 387 386 385 385 384 384 384 383 383 383 382 382 382 381 381 380 380 380 379 379 379 379 378 378 378 377 377 377 377 377 377 377 377 376 375 374 374 374 374 374 374 374 375 375 376 377 379 379 379 379 379 379 379 379 380 380 381 381 381 380 380 379 378 378 377 376 376 375 375 375 375 374 374 374 374 373 372 373 374 375 376 376 377 377 378 379 380 380 381 382 382 382 383 383 383 384 384 384 384 384 384 384 384 384 384 384 384 384 384 384 384 383 382 381 380 380 379 379 379 378 378 378 378 378 378 379 381 382 382 383 383 383 383 383 383 384 385 385 386 386 386 385 385 384 384 384 384 384 384 383 382 382 382 382 382 382 383 383 383 383 384 384 384 384 384 384 384 383 383 383 382 382 381 381 381 381 380 380 380 380 379 380 380 381 381 381 382 382 382 382 382 382 383 383 383 383 383 383 384 384 384 385 386 386 386 387 387 388 388 389 389 389 390 390 390 391 392 393 394 394 395 395 395 395 396 396 396 396 396 396 396 395 394 393 393 392 391 390 390 389 389 388 388 387 387 386 386 386 386 386 386 386 386 385 384 384 383 383 383 383 383 383 383 383 383 383 382 381 380 379 380 380 380 379 379 378 378 378 377 377 376 376 377 377 377 377 377 376 375 374 373 373 373 373 373 373 373 372 372 372 372 372 372 372 372 372 372 372 372 372 372 372 372
351 351 351 351 351 351 351 352 352 352 352 353 353 354 355 356 356 357 358 358 359 360 362 363 363 364 364 365 365 365 366 366 366 366 367 367 368 368 369 370 370 371 372 372 373 374 374 375 376 378 379 381 382 383 383 384 384 384 383 383 382 382 381 380 379 377 376 375 374 373 373 372 372 371 371 370 370 370 370 370 369 369 369 369 369 369 368 368 368 368 368 368 368 368 368 369 370 371 371 372 371 371 371 370 370 369 369 368 367 367 366 366 365 365 365 364 364 364 364 364 364 364 364 365 366 368 369 370 370 371 371 372 373 374 375 376 377 377 378 378 378 378 378 377 377 377 376 376 376 375 375 374 374 373 373 373 372 372 373 373 374 374 374 374 374 373 371 370 369 369 369 369 369 369 369 369 370 371 373 375 377 379 381 383 384 385 386 386 386 386 386 385 384 384 383 383 383 383 383 384 384 385 386 387 388 388 389 389 389 389 389 389 389 388 388 388 388 388 387 387 386 385 383 383 382 382 382 382 382 381 380 380 380 380 381 381 381 381 382 382 382 382 381 381 381 380 380 380 379 379 380 380 380 379 377 377 376 377 378 378 379 379 379 379 380 380 381 381 381 382 382 383 384 384 385 386 387 389 390 391 392 392 392 391 391 390 389 388 387 387 386 385 385 385 384 384 384 384 384 384 384 383 383 382 381 381 380 380 380 379 379 379 378 378 378 378 378 378 378 378 378 377 376 375 375 374 374 374 374 374 375 375 376 377 378 379 379 379 379 379 379 379 380 380 381 381 381 381 381 380 379 378 378 377 376 376 375 375 375 375 375 374 374 374 373 373 374 375 376 377 377 378 379 379 380 381 381 382 382 383 383 383 384 384 385 385 385 385 385 385 385 385 385 385 385 385 385 385 384 383 382 381 380 380 380 380 379 379 379 379 379 379 379 380 382 382 383 383 383 383 383 384 384 385 386 386 386 386 386 386 385 384 384 384 384 384 384 384 383 383 383 383 383 383 383 383 384 384 384 384 384 384 384 384 384 384 383 383 383 382 382 381 381 381 381 381 380 380 380 381 381 381 381 382 382 382 382 382 382 382 383 383 383 383 383 383 383 384 384 385 386 386 386 387 387 388 388 388 389 389 390 390 391 392 393 394 395 395 395 395 395 396 396 396 396 396 396 396 396 395 394 393 392 391 390 390 389 388 388 388 387 387 386 386 386 385 385 386 386 386 385 385 384 383 383 383 382 382 382 382 382 382 383 382 382 381 380 380 380 380 379 379 379 378 378 377 377 377 377 377 377 377 377 377 377 376 374 373 373 373 373 373 373 373 373 373 373 372 372 372 372 372 372 373 373 373 373 373 373 373 373
351 351 351 352 352 352 352 352 352 352 353 353 353 354 355 356 356 357 358 358 359 360 361 362 362 362 363 363 364 365 366 366 366 367 367 367 368 369 369 370 371 372 372 373 374 374 375 375 376 377 379 380 381 382 383 383 383 383 382 382 382 381 380 379 378 377 376 374 373 373 372 372 372 371 371 371 371 370 370 370 370 370 370 370 369 369 369 369 368 368 368 368 368 368 369 369 371 371 372 372 372 371 371 371 370 370 369 368 368 367 367 366 366 365 365 365 364 364 364 364 364 364 364 365 365 366 367 368 369 370 370 371 371 372 373 374 376 376 377 378 378 378 378 378 377 377 377 376 376 376 375 374 374 373 373 373 373 373 373 374 374 375 375 375 374 373 371 370 370 369 369 369 369 370 370 370 370 371 373 375 377 379 382 383 385 386 387 387 387 387 387 386 386 385 384 383 383 383 384 384 385 386 387 388 389 389 389 389 389 389 389 389 389 389 389 389 389 388 388 387 386 386 385 384 384 384 384 383 383 383 382 381 381 382 382 382 382 382 382 382 382 382 382 382 381 381 381 381 381 381 381 381 381 380 378 377 377 378 378 379 379 379 380 380 380 381 381 382 382 383 383 383 384 385 385 386 387 389 390 391 392 392 392 391 391 390 390 389 388 387 387 386 386 385 385 385 385 385 385 385 386 385 385 384 383 382 381 381 380 380 380 380 379 379 379 379 379 379 379 379 379 378 377 376 375 375 375 375 375 375 375 376 376 377 377 378 379 380 380 380 380 380 380 381 381 382 382 382 381 381 380 379 378 377 377 376 376 376 376 375 375 375 375 375 374 374 373 374 376 377 377 378 379 379 380 381 381 382 382 383 383 384 385 385 385 385 386 386 386 386 386 386 386 386 386 386 386 385 385 384 382 382 381 381 381 380 380 379 379 379 379 379 379 380 382 383 383 383 383 383 384 384 385 386 387 387 387 387 387 386 385 385 385 385 384 384 384 384 383 383 383 383 383 383 384 384 384 384 385 385 385 385 385 385 384 384 384 383 383 383 382 382 382 381 381 381 381 381 381 381 381 381 382 382 382 382 382 382 382 383 383 383 383 383 383 383 383 384 385 385 386 386 386 387 387 388 388 388 389 389 390 391 392 393 394 395 395 395 395 396 396 397 397 397 397 397 397 396 395 395 394 393 392 391 390 389 388 388 388 387 387 386 386 386 385 385 385 386 386 385 384 384 383 383 382 382 382 382 382 382 382 382 382 381 381 380 381 380 380 380 379 379 378 378 378 377 377 377 377 377 377 377 377 377 377 376 374 373 373 373 373 373 373 373 373 373 373 373 373 373 372 373 373 373 373 373 373 373 373 373 373
352 352 352 352 352 352 353 353 353 353 353 354 354 355 355 356 356 357 358 359 359 360 361 361 361 362 362 363 363 364 365 366 366 367 367 367 368 369 369 370 371 372 373 373 374 374 375 376 376 378 379 380 381 382 382 382 382 382 382 381 381 380 379 378 377 376 375 374 373 373 372 372 372 371 371 371 371 371 371 371 371 371 371 370 370 370 369 369 369 369 368 368 368 369 369 370 371 372 372 372 372 372 371 371 370 370 369 369 368 367 367 366 366 366 365 365 365 364 364 364 364 364 365 365 365 366 366 367 368 369 370 370 371 372 373 374 375 376 377 377 378 378 378 378 378 377 377 377 376 376 375 375 374 374 373 373 373 373 374 374 375 375 375 375 375 374 372 371 370 370 369 370 370 370 370 370 371 372 373 375 377 380 382 384 386 387 387 387 387 387 387 387 387 386 385 385 385 385 385 385 386 387 388 388 389 389 390 390 390 390 390 390 390 390 389 389 389 389 388 387 387 386 386 385 385 385 385 384 384 384 383 383 383 383 384 384 384 384 384 383 383 383 383 383 382 382 382 382 382 382 382 382 382 381 379 379 378 378 379 379 380 380 380 381 381 381 382 382 383 383 384 384 384 385 385 386 387 389 390 391 392 392 392 392 391 391 390 389 388 388 387 387 387 386 386 386 386 386 387 387 387 387 386 385 384 383 382 381 381 381 380 380 380 380 380 379 379 379 380 379 379 378 377 377 376 376 375 375 375 375 376 376 377 377 377 378 379 379 380 380 380 380 380 381 382 382 383 382 382 382 381 380 379 378 377 377 376 376 376 376 375 375 375 375 375 375 374 375 376 377 378 378 379 380 380 381 382 382 383 383 383 384 385 385 386 386 386 386 386 386 386 386 386 386 386 386 386 385 385 384 383 382 381 381 381 381 380 380 380 380 380 380 380 381 382 382 382 383 383 384 385 385 386 387 387 387 387 387 387 387 385 385 385 385 385 385 384 384 384 384 384 383 384 384 384 384 384 385 385 385 385 385 385 385 385 384 384 384 383 383 382 382 382 382 382 382 382 382 382 382 382 382 382 382 382 382 382 382 382 383 383 383 383 383 383 383 383 384 385 385 386 386 386 387 387 387 388 388 389 390 390 391 393 394 395 396 396 396 396 396 397 397 397 397 397 397 397 396 395 395 394 392 391 390 390 389 388 388 387 387 387 386 386 386 385 385 386 386 385 385 384 383 383 383 382 382 382 382 382 382 381 381 381 381 380 380 381 380 380 379 379 378 378 378 377 377 377 377 377 377 377 377 377 377 377 376 374 373 373 373 373 373 373 373 373 373 373 373 373 373 373 373 373 373 373 373 373 374 374 374 374
354 354 354 354 354 353 353 353 354 354 354 355 355 356 356 356 357 357 358 359 359 360 361 361 361 362 362 362 363 363 364 365 366 367 367 367 368 369 370 371 371 372 373 374 374 375 375 376 377 378 379 380 381 382 382 382 382 381 381 381 380 379 378 377 376 375 374 374 373 373 372 372 372 372 372 372 372 372 372 372 372 372 371 371 371 370 370 369 369 369 369 369 369 369 370 371 372 372 372 372 372 372 371 371 371 370 369 369 368 368 367 367 366 366 366 365 365 365 365 365 365 365 365 365 365 365 366 367 367 368 369 370 371 371 372 373 374 375 376 377 378 378 378 378 378 378 378 377 377 376 376 375 374 374 374 373 373 374 374 375 375 376 376 376 375 374 372 371 370 370 370 370 370 370 371 371 371 372 373 375 378 380 382 384 386 387 388 388 388 388 388 388 388 387 386 386 386 386 387 387 387 388 388 389 389 390 390 390 390 390 390 390 390 390 390 390 389 389 388 388 387 387 386 386 386 386 385 385 385 385 384 384 384 385 385 385 385 385 385 385 384 384 384 383 383 383 383 383 383 383 383 383 383 382 381 380 379 379 380 380 380 381 381 381 382 382 383 383 384 384 384 385 385 385 386 386 387 388 390 391 392 392 393 392 392 391 390 389 389 388 388 388 387 387 387 387 387 387 388 388 388 388 387 387 386 385 383 382 382 381 381 381 381 380 380 380 380 380 380 380 380 379 378 377 377 376 376 376 376 376 377 377 377 378 378 378 379 379 380 380 380 380 380 381 382 383 383 383 383 382 381 380 379 379 378 377 377 377 377 376 376 376 376 376 376 376 376 376 376 377 378 379 379 380 380 381 382 382 383 383 384 384 385 386 386 386 387 387 387 387 387 387 387 386 386 386 386 385 384 384 383 383 382 382 382 381 381 381 381 381 380 380 380 381 381 381 382 382 383 384 386 387 387 387 387 388 388 388 388 387 386 385 385 385 385 385 385 385 385 385 384 384 384 384 384 385 385 385 385 385 385 385 385 385 385 385 384 384 383 383 383 383 383 383 383 383 383 383 383 382 382 382 382 382 382 382 382 382 382 383 383 383 383 383 383 383 384 384 384 385 386 386 386 387 387 387 388 388 389 390 391 392 393 394 395 396 396 396 397 397 397 398 398 398 397 397 397 396 396 395 393 392 391 390 389 389 388 388 387 387 387 386 386 386 385 385 386 385 385 384 383 383 383 382 382 382 381 381 381 381 381 381 381 380 381 380 380 380 379 379 378 378 378 378 377 377 377 377 377 377 377 377 377 377 377 376 374 373 373 373 373 373 373 373 373 373 373 373 373 373 373 373 373 373 374 374 374 374 374 375 375
356 355 355 355 354 354 354 354 354 354 355 355 356 356 357 357 357 358 358 359 359 360 361 361 361 362 362 362 362 363 364 365 366 366 367 367 368 369 370 371 372 372 373 374 374 375 376 376 377 378 379 380 381 381 382 382 381 381 381 380 379 379 378 377 376 375 374 374 373 373 373 372 372 372 372 372 372 372 372 372 372 372 372 372 371 371 370 370 370 370 369 369 369 370 370 371 372 372 373 373 372 372 372 371 371 370 369 369 368 368 367 367 367 366 366 366 365 365 365 365 365 365 365 365 365 365 365 366 367 368 369 370 371 371 372 373 374 375 376 377 378 378 378 379 378 378 378 377 377 376 376 375 375 374 374 374 374 374 375 375 376 376 376 376 376 375 373 372 371 370 370 370 371 371 371 371 372 373 374 376 378 380 383 385 387 388 388 389 389 389 389 389 388 388 388 388 388 388 388 388 388 389 389 390 390 390 391 391 391 391 391 391 391 391 390 390 390 389 389 388 388 387 387 387 386 386 386 386 386 386 385 385 386 386 386 386 386 386 386 385 385 385 384 384 384 384 384 384 384 384 384 384 384 383 382 381 381 381 381 381 381 381 382 382 383 383 383 384 384 385 385 385 385 386 386 387 387 389 390 391 392 393 393 393 392 392 391 390 390 389 389 388 388 388 388 388 388 388 389 389 389 389 388 387 387 385 384 383 383 382 382 381 381 381 381 381 381 381 381 381 380 380 379 378 377 377 377 377 376 377 378 378 378 378 378 379 379 379 380 380 380 380 380 381 382 383 384 384 383 382 382 381 380 379 378 378 378 377 377 377 377 376 376 376 376 376 377 377 377 377 378 379 379 380 381 381 382 382 383 383 384 385 386 386 387 387 387 387 388 388 387 387 387 387 387 386 386 385 384 384 384 383 383 383 382 382 382 382 381 381 381 381 381 381 381 381 382 382 383 384 386 387 388 388 388 388 388 388 389 388 387 386 385 385 385 385 385 385 385 385 385 384 384 384 385 385 385 385 385 386 386 386 386 385 385 385 385 384 384 383 383 383 383 384 384 383 383 383 383 382 382 382 382 382 382 382 382 382 383 383 383 383 383 383 383 384 384 384 384 385 386 386 386 387 387 387 388 389 389 390 391 392 393 394 396 396 397 397 397 398 398 398 398 398 398 397 397 396 395 394 393 392 391 390 389 389 388 388 388 387 387 387 386 386 385 386 386 385 384 384 383 383 382 382 382 381 381 381 381 381 381 380 380 380 380 380 380 379 379 378 378 378 378 378 377 377 377 377 377 377 377 377 377 377 377 376 375 374 373 373 373 373 373 373 373 373 373 373 373 373 373 374 374 374 374 374 374 375 375 375 375
357 357 356 356 355 355 355 355 355 355 355 356 356 357 357 357 358 358 359 359 360 360 361 361 361 362 362 362 362 363 363 364 365 366 367 367 368 369 370 371 372 372 373 374 374 375 376 376 377 378 379 380 381 381 381 381 381 380 380 379 378 378 377 376 375 375 374 374 373 373 373 373 373 373 373 373 373 373 373 373 373 373 372 372 371 371 370 370 370 370 370 370 370 371 371 372 373 373 373 373 372 372 372 371 371 370 370 369 369 368 368 367 367 367 366 366 366 365 365 365 365 365 365 365 365 365 365 366 367 368 369 370 371 371 372 373 374 375 376 377 378 378 379 379 379 378 378 378 377 377 376 375 375 374 374 374 374 375 375 376 377 377 377 377 377 375 374 372 371 371 371 371 371 371 372 372 372 373 374 376 378 381 383 385 387 388 389 389 389 389 389 389 389 389 389 389 389 389 389 389 389 390 390 390 390 391 391 391 391 392 392 392 392 392 391 391 390 390 389 389 388 388 388 387 387 387 386 386 386 386 386 386 386 386 387 387 387 387 386 386 386 385 385 385 385 385 385 385 385 385 384 385 385 384 383 382 382 382 382 382 382 382 383 383 383 384 384 384 385 385 385 386 386 386 387 387 388 389 391 392 393 394 394 394 393 393 392 391 391 390 389 389 389 389 389 389 389 390 390 390 390 390 389 388 387 386 385 384 384 383 383 382 382 382 382 382 382 382 382 381 381 380 379 378 378 378 377 377 377 378 378 379 379 379 379 379 379 380 380 380 380 380 380 381 381 382 384 384 384 383 382 381 381 380 379 378 378 378 378 377 377 377 377 377 377 377 377 377 377 377 378 378 379 380 381 381 382 383 383 384 385 385 386 387 387 388 388 388 388 388 388 388 388 388 388 387 386 385 385 384 384 384 384 383 383 383 383 383 382 382 382 382 382 382 382 382 382 382 383 385 387 388 388 388 388 388 389 389 390 389 388 387 385 385 385 385 385 385 385 385 385 385 385 385 385 385 385 386 386 386 386 386 386 386 386 385 385 384 384 384 384 384 384 384 384 384 384 383 383 382 382 382 382 382 382 382 382 382 383 383 383 383 383 383 384 384 384 384 384 385 385 386 386 387 387 387 388 389 390 391 391 392 394 395 396 397 397 397 398 398 399 399 399 398 398 397 396 396 395 394 393 392 391 390 389 389 389 388 388 388 387 387 386 385 385 386 386 385 385 384 383 383 382 382 382 381 381 381 380 380 380 380 380 380 380 379 379 379 378 378 378 378 378 378 378 378 378 377 377 377 377 377 376 377 377 376 376 375 374 373 373 373 373 373 373 373 373 373 373 373 374 374 374 374 374 375 375 375 375 376 376
358 358 357 357 356 356 356 355 355 356 356 356 357 357 358 358 358 359 360 360 361 361 361 362 362 362 362 362 363 363 363 364 365 366 366 367 368 369 369 370 371 372 373 374 374 375 376 376 377 378 378 379 380 381 381 381 380 380 380 379 378 377 376 376 375 375 375 374 374 373 373 373 373 374 374 374 374 374 374 374 374 373 373 372 372 371 371 371 370 370 370 370 371 371 372 373 373 373 373 373 372 372 372 371 371 370 370 369 369 369 368 368 367 367 366 366 366 366 365 365 365 365 365 365 365 365 365 366 367 368 369 370 371 371 372 373 374 375 376 377 378 379 379 379 379 379 378 378 378 377 376 376 375 375 375 375 375 375 376 377 377 377 377 377 377 376 374 373 372 371 371 371 372 372 372 372 373 374 375 377 379 381 383 385 387 389 389 390 390 390 390 390 390 390 389 389 389 390 390 390 390 390 391 391 391 391 392 392 392 392 392 392 392 392 392 391 391 390 390 389 389 389 388 388 388 387 387 387 387 387 387 387 387 387 387 387 387 387 387 387 386 386 386 386 386 386 386 386 386 386 385 385 385 385 384 383 383 383 383 383 382 383 383 384 384 384 385 385 385 386 386 386 387 387 387 388 388 390 391 392 394 394 395 394 394 394 393 392 391 391 390 390 389 389 389 390 390 391 391 391 391 390 389 388 388 387 386 385 385 384 384 383 383 383 383 383 383 383 383 382 382 381 380 379 378 378 378 378 378 378 379 379 379 379 379 380 380 380 381 381 381 381 381 381 381 382 383 384 384 384 383 382 381 380 379 379 379 378 378 378 377 377 377 377 378 378 378 378 378 378 378 379 379 380 381 381 382 383 383 384 385 386 387 387 388 388 388 388 389 388 388 388 389 389 389 388 387 386 385 385 385 385 384 384 384 384 384 383 383 383 383 382 382 383 383 383 383 383 383 385 387 388 388 388 389 389 389 390 390 390 389 387 386 385 385 385 385 385 385 385 385 385 385 385 385 385 386 386 386 386 386 386 386 386 386 386 385 385 384 384 384 384 384 384 384 384 384 383 383 383 383 383 383 382 382 382 382 383 383 383 383 383 383 383 384 384 384 384 385 385 386 386 386 387 387 388 388 389 390 391 392 393 394 395 396 397 397 398 398 399 399 399 399 398 398 397 396 395 394 394 393 392 391 390 390 389 389 388 388 388 387 386 385 385 385 386 386 385 384 384 383 383 382 382 382 381 381 380 380 380 380 380 379 379 379 379 379 378 378 378 378 378 378 378 378 378 378 377 377 377 377 377 376 376 377 376 376 375 374 373 373 373 373 373 373 373 373 373 374 374 374 374 374 374 375 375 375 376 376 376 376
358 358 358 358 357 357 357 356 356 356 357 357 358 358 358 359 359 360 361 362 362 362 362 362 363 363 363 363 363 363 364 364 365 366 366 367 368 369 369 370 371 372 373 374 374 375 376 376 377 377 378 379 380 380 380 380 380 380 379 378 378 377 376 376 376 375 375 374 374 374 374 374 374 374 374 374 375 375 374 374 374 374 373 373 372 372 371 371 371 371 371 371 372 372 373 373 374 374 373 373 373 372 372 371 371 370 370 370 369 369 369 368 368 367 367 366 366 366 366 366 366 365 365 365 365 365 365 366 367 368 369 369 370 371 371 372 374 375 376 378 379 379 380 379 379 379 379 378 378 377 376 376 375 375 375 375 375 376 376 377 378 378 378 378 378 377 375 374 372 372 372 372 372 373 373 373 373 375 376 378 380 382 384 386 388 389 390 390 391 391 390 390 390 390 390 390 390 390 390 390 390 391 391 391 392 392 392 392 393 393 393 393 393 393 393 392 391 390 390 390 389 389 389 389 388 388 388 388 388 388 388 388 388 388 388 388 388 388 388 387 387 387 387 387 387 387 387 387 386 386 386 386 386 385 385 384 384 384 384 383 383 383 384 384 385 385 385 386 386 386 387 387 387 388 388 388 389 390 391 393 394 395 395 395 395 394 394 393 392 391 391 390 390 390 391 391 391 392 392 392 391 390 389 388 388 387 386 386 385 385 385 384 384 385 385 384 384 384 383 383 382 381 380 379 379 378 378 378 378 379 379 379 380 380 380 380 380 381 381 382 382 382 381 381 381 381 381 383 384 384 383 382 382 381 380 379 379 379 378 378 378 378 378 378 378 378 378 378 379 379 379 379 380 380 381 382 382 383 384 385 385 386 387 388 388 388 389 389 389 389 389 389 389 389 389 389 388 387 386 386 385 385 385 385 385 385 385 384 384 384 383 383 383 383 384 384 384 384 384 385 386 387 388 389 390 390 390 391 391 390 389 387 386 385 385 385 385 385 385 385 385 386 386 386 386 386 386 386 386 387 387 387 387 387 386 386 386 385 385 385 385 384 384 384 384 384 383 383 384 384 384 384 384 383 382 382 382 383 383 383 383 383 383 383 384 384 384 384 385 386 386 386 387 387 387 388 389 389 390 391 392 393 394 395 397 398 398 398 398 399 399 399 399 398 397 396 395 395 394 393 392 391 391 390 390 389 389 388 388 387 386 385 385 385 386 385 385 385 384 384 383 383 382 382 381 381 381 380 380 379 379 379 379 379 378 378 378 378 378 378 378 378 377 378 378 378 378 377 377 377 377 377 376 376 377 376 376 375 374 373 373 373 373 373 373 373 373 374 374 374 374 374 374 375 375 375 376 377 377 377 376
359 359 359 359 358 358 357 357 357 357 357 358 358 359 359 359 360 361 362 363 363 363 363 363 364 364 363 363 364 364 364 365 365 366 366 367 368 369 369 370 371 372 373 373 374 375 375 376 377 377 378 379 379 380 380 380 380 380 379 379 378 377 377 376 376 376 375 375 375 374 374 374 375 375 375 375 375 375 375 375 374 374 373 373 372 372 371 371 371 371 372 372 373 373 374 374 374 374 374 373 373 372 372 371 371 371 370 370 370 369 369 369 368 368 367 367 366 366 366 366 366 366 365 365 365 365 366 366 367 367 368 369 370 371 372 373 374 375 377 378 379 380 380 380 380 379 379 379 378 378 377 376 376 376 376 376 376 376 377 377 378 378 378 378 378 378 376 375 373 372 372 372 373 373 373 374 374 375 377 379 380 382 385 387 388 390 390 391 391 391 391 391 391 391 391 391 391 391 391 391 391 391 392 392 392 393 393 393 393 393 393 393 394 393 393 393 392 391 390 390 390 390 389 389 389 389 388 388 388 388 388 388 388 388 388 388 389 389 389 388 388 387 387 388 388 388 388 388 387 387 387 387 386 386 385 385 385 384 384 384 383 384 385 385 386 386 386 386 387 387 387 388 388 388 389 389 390 391 392 393 395 395 396 396 395 395 394 394 393 393 392 391 391 391 392 393 393 393 393 392 391 390 389 389 388 388 387 386 386 386 386 386 385 386 386 386 385 385 384 384 383 382 381 380 379 379 379 379 379 379 379 380 380 380 381 381 381 382 382 383 384 383 382 381 381 381 381 382 383 384 384 383 382 381 381 380 380 379 379 379 378 378 378 378 378 378 379 379 379 379 379 380 380 380 381 382 382 383 384 385 386 386 387 388 389 389 389 389 389 390 390 390 390 390 390 389 389 388 387 386 386 385 386 386 385 385 385 385 385 385 384 384 384 384 385 385 385 385 384 385 386 387 388 389 390 391 391 392 392 391 389 388 386 386 386 385 385 385 385 385 385 385 386 386 386 386 386 387 387 387 387 387 387 386 386 386 386 385 385 385 385 385 385 385 384 384 384 384 384 385 385 385 385 384 383 383 383 383 383 383 383 383 383 383 384 384 384 385 386 386 387 387 387 387 388 388 389 390 390 391 392 393 395 396 397 398 398 398 399 399 399 399 399 398 397 396 395 394 393 393 392 391 391 390 390 389 389 388 387 386 385 385 385 385 386 386 385 385 384 384 383 383 382 382 381 381 380 380 380 379 379 379 378 378 378 378 378 378 378 378 378 377 377 378 378 378 378 377 377 377 377 377 376 376 376 376 375 375 374 374 373 373 373 373 373 373 374 374 374 374 374 375 375 375 376 376 377 377 377 377 377
359 359 359 359 359 359 358 358 358 358 358 358 359 359 360 360 361 362 363 363 364 364 365 365 365 365 364 365 365 365 365 365 365 366 366 367 368 369 369 370 371 372 373 373 374 375 375 376 376 377 378 378 379 380 380 380 380 380 380 379 378 378 377 376 376 376 376 375 375 375 375 375 375 375 376 376 376 376 375 375 375 374 374 373 372 372 372 372 372 372 373 373 374 374 374 375 375 375 374 374 373 372 372 372 371 371 371 370 370 370 369 369 369 368 368 367 367 366 366 366 366 366 366 366 366 366 366 366 367 368 368 369 370 371 372 373 374 376 378 379 380 380 380 380 380 380 379 379 378 378 377 377 376 376 376 376 376 377 377 378 378 379 379 379 379 378 377 376 374 373 373 373 374 374 374 374 375 376 378 379 381 383 386 387 389 390 391 391 392 392 391 391 391 391 391 391 391 391 392 392 392 392 393 393 393 393 393 394 394 394 394 394 394 394 394 393 392 392 391 391 390 390 390 390 390 389 389 389 389 389 389 389 389 389 389 389 389 390 390 389 389 388 388 388 388 388 388 388 388 388 388 387 387 387 386 386 385 385 384 384 385 385 386 386 387 387 387 387 387 387 388 388 389 389 389 390 390 391 392 393 394 395 396 396 396 396 395 395 395 394 393 392 392 393 394 395 395 395 394 393 392 391 390 389 388 388 387 387 387 387 387 387 386 387 388 387 386 386 385 385 384 383 381 380 380 380 380 380 379 380 380 380 380 381 381 382 382 383 384 385 385 384 383 382 381 381 381 381 382 383 384 384 383 382 382 381 381 380 380 379 379 379 378 378 378 378 379 379 380 380 380 380 380 381 381 382 383 383 384 384 385 386 387 388 389 389 390 390 390 390 390 390 390 390 390 390 389 388 387 387 386 386 386 386 386 386 386 386 386 385 385 385 385 385 385 385 385 385 385 385 386 387 388 389 389 391 392 393 393 392 390 389 388 387 386 386 386 385 385 385 385 385 386 386 386 386 387 387 387 387 386 386 386 386 386 386 386 385 385 385 385 385 385 385 385 385 385 385 385 386 386 386 385 385 384 384 384 384 384 384 384 383 383 384 384 384 386 386 387 387 387 387 387 388 388 389 389 390 390 391 392 393 395 396 397 398 399 399 399 399 399 399 398 398 397 396 395 394 393 392 392 391 390 390 390 389 388 387 386 385 385 385 385 386 386 386 385 385 384 384 383 382 382 382 381 381 380 380 379 379 379 379 378 378 378 378 378 378 377 377 377 377 377 378 378 378 378 377 377 377 376 376 376 376 375 375 374 374 374 374 373 373 373 373 373 374 374 374 374 375 375 375 376 376 377 377 377 378 377 377 377
359 359 359 359 359 359 359 359 359 359 359 359 359 360 360 361 361 362 363 364 365 365 366 366 366 365 365 365 366 366 365 365 366 366 367 367 368 369 370 370 371 372 373 373 374 374 375 376 376 377 378 378 379 380 380 380 380 380 380 380 379 378 378 377 377 376 376 376 376 376 376 376 376 376 376 376 376 376 376 375 375 374 374 373 373 372 372 372 373 374 374 375 375 375 375 375 375 375 374 374 373 373 372 372 372 371 371 371 370 370 370 369 369 368 368 367 367 367 366 366 366 366 366 366 366 366 366 366 367 368 369 369 371 371 372 373 375 376 378 379 380 380 381 380 380 380 380 379 379 378 378 377 377 377 376 377 377 377 378 378 379 379 379 380 379 379 378 376 374 374 373 374 374 375 375 375 376 377 379 380 382 384 386 388 389 390 391 391 392 392 392 392 392 392 392 392 392 392 392 392 393 393 393 393 394 394 394 394 394 395 395 395 395 395 395 394 393 392 392 391 391 391 391 391 390 390 390 390 389 389 389 389 389 390 390 390 390 391 391 390 390 389 389 389 389 389 388 388 388 388 389 388 388 388 387 386 386 385 385 385 386 386 387 387 387 387 387 388 388 388 389 389 389 390 390 390 391 391 392 393 394 396 397 397 397 397 397 397 396 395 394 394 393 394 395 396 397 396 396 394 392 391 391 390 389 388 388 388 388 388 388 388 388 388 390 389 388 387 387 386 385 384 382 381 381 380 380 380 380 380 380 381 381 381 382 382 383 384 385 386 386 386 385 384 382 382 381 381 381 382 383 384 383 383 382 382 381 381 381 380 380 379 379 378 379 379 379 380 380 380 380 381 381 381 382 382 383 383 384 385 385 386 387 388 389 390 390 390 390 391 391 391 391 391 391 391 390 389 388 387 386 386 386 386 386 386 386 386 386 386 386 386 386 385 386 385 385 385 385 386 387 387 388 388 389 391 393 394 394 393 391 390 388 387 386 386 386 385 385 385 385 385 386 386 386 386 387 387 387 386 386 386 386 386 386 386 386 386 385 385 385 385 385 386 386 386 386 386 386 386 386 386 386 386 385 385 385 385 385 385 384 384 384 384 384 385 386 387 387 387 387 387 388 388 389 389 389 390 391 392 392 394 395 396 397 398 399 399 399 399 399 399 398 397 397 396 395 394 393 392 391 391 390 390 389 388 387 386 385 385 385 385 386 386 386 386 385 385 384 384 383 382 382 381 381 381 380 380 380 379 379 379 378 378 378 378 377 377 377 377 377 377 377 377 378 378 377 377 377 377 376 376 376 376 375 374 374 374 374 374 374 374 374 374 374 374 374 374 374 375 375 375 376 376 377 377 378 378 378 378 378
359 359 360 360 360 360 360 360 360 360 360 360 360 360 361 361 362 363 364 364 365 366 366 366 366 366 366 366 366 366 366 366 366 366 367 367 368 369 370 371 372 373 373 373 374 374 375 376 376 377 378 378 379 380 380 380 381 381 381 380 380 379 378 378 377 377 377 377 376 376 377 377 377 377 377 377 377 377 376 376 375 375 374 373 373 373 372 373 374 375 376 376 376 376 376 376 376 375 375 374 374 373 373 372 372 372 371 371 371 370 370 370 369 369 368 368 367 367 366 366 366 366 366 366 366 366 366 366 367 368 369 370 372 373 373 374 375 377 378 379 380 381 381 381 381 380 380 379 379 378 378 378 377 377 377 377 377 378 378 379 379 380 380 380 380 380 379 377 375 374 374 374 375 375 376 377 378 379 380 381 383 385 387 388 390 390 391 392 392 392 392 392 392 392 392 393 393 393 393 393 393 394 394 394 394 394 395 395 395 395 395 396 396 396 396 395 395 394 392 392 392 392 391 391 391 391 390 390 390 390 390 390 390 390 391 391 391 391 392 392 392 391 390 390 389 389 389 389 389 390 390 390 390 389 387 387 386 386 386 386 387 387 388 388 388 388 388 388 389 389 389 390 390 390 391 391 391 392 392 393 395 396 398 399 399 399 398 398 397 397 396 395 395 395 396 397 398 397 397 395 393 392 392 391 390 389 389 389 389 388 388 389 389 390 391 391 390 389 389 387 386 384 383 382 381 381 381 381 381 381 381 381 382 382 382 383 384 385 385 386 387 387 387 386 384 383 382 381 382 382 382 383 384 384 383 382 382 382 381 381 381 380 379 379 379 379 379 380 380 381 381 381 381 382 382 383 383 384 384 385 386 386 387 388 390 390 391 391 391 391 391 391 392 392 392 392 390 389 388 387 386 386 386 386 386 386 386 386 386 386 386 386 386 386 386 386 386 386 386 386 387 388 388 388 388 390 393 394 394 393 391 390 388 387 386 386 386 385 385 385 385 385 385 386 386 386 386 386 386 386 386 386 386 386 386 386 386 386 386 386 385 386 386 386 386 386 387 387 386 386 387 387 387 386 386 386 386 386 386 386 385 385 386 386 386 386 387 387 387 387 388 388 388 388 389 389 390 390 391 392 393 394 395 396 397 398 399 400 400 399 399 399 398 397 396 395 394 393 392 392 391 391 390 389 388 387 386 385 385 385 385 386 386 386 386 386 385 385 384 384 383 382 382 381 381 381 380 380 380 380 379 378 378 378 378 378 377 377 377 377 377 377 377 377 377 377 377 377 377 376 376 375 375 375 375 375 374 374 374 374 374 374 374 374 374 374 374 374 374 374 375 375 376 376 376 377 378 378 378 378 378
359 360 360 360 360 360 360 360 360 360 360 361 361 361 361 362 363 363 364 365 366 366 367 367 367 367 366 367 367 367 367 367 367 367 367 368 369 370 371 372 372 373 373 374 374 375 375 376 376 377 378 379 379 380 380 381 381 381 381 381 381 380 380 379 379 378 378 378 378 378 378 378 378 378 377 377 377 377 377 376 375 375 374 374 373 373 373 374 376 376 377 377 377 377 377 376 376 376 375 374 374 373 373 373 372 372 372 371 371 371 371 370 369 369 368 368 367 367 366 366 366 366 366 366 366 366 366 366 367 368 370 371 373 374 374 375 376 378 379 380 381 381 381 381 381 381 380 380 379 379 378 378 378 377 377 377 378 378 379 379 380 380 380 381 381 380 379 378 376 375 375 375 376 376 377 378 379 380 382 383 385 386 388 389 390 390 391 392 392 392 393 393 393 393 393 393 393 393 394 394 394 394 394 395 395 395 395 395 396 396 396 396 396 397 397 396 395 394 393 393 392 392 392 392 392 391 391 391 391 391 391 391 391 391 392 392 392 392 393 393 393 392 391 391 390 390 390 390 390 390 391 391 390 389 388 387 387 387 387 388 388 388 389 389 389 389 389 389 389 390 390 390 391 391 391 392 392 392 393 393 394 396 398 399 400 400 400 400 399 398 397 397 396 397 397 398 399 399 398 397 395 394 393 392 391 391 390 390 389 389 389 390 391 392 393 393 392 391 390 388 386 385 383 382 382 382 382 382 382 382 382 382 382 383 383 384 384 385 386 386 387 388 388 387 386 384 383 382 382 382 382 382 383 384 384 383 383 382 382 382 381 380 380 380 380 380 380 380 381 381 381 382 382 382 383 383 384 384 384 385 386 387 387 389 390 391 391 392 392 392 392 393 393 393 393 392 390 389 388 387 386 386 386 386 386 386 386 386 386 386 386 386 386 386 386 386 386 386 386 386 387 388 388 388 388 390 393 394 393 392 391 390 388 387 386 386 385 385 385 385 384 385 385 385 385 385 385 386 386 386 386 386 386 386 386 386 386 386 386 386 386 386 386 386 386 387 387 387 387 387 387 387 387 387 387 387 386 386 386 386 386 386 386 386 386 387 387 387 387 387 387 388 388 388 389 389 390 390 391 392 393 394 395 396 397 398 399 400 400 399 399 398 397 397 396 395 394 393 392 392 391 390 390 388 387 386 385 385 385 385 386 386 386 386 386 386 385 385 384 383 383 382 382 381 381 380 380 380 380 380 379 378 378 378 378 378 377 377 377 377 377 377 377 377 377 377 377 377 377 376 375 375 375 375 375 375 374 374 374 374 374 374 374 374 374 374 374 374 374 374 375 375 376 376 376 377 378 378 378 378 378
360 360 360 361 361 361 361 361 361 361 361 361 362 362 362 363 364 364 365 366 366 367 367 368 368 367 367 367 367 367 367 367 367 367 368 368 369 370 371 372 373 373 373 374 374 375 376 376 377 377 378 379 379 380 380 381 381 382 382 382 382 381 381 381 380 380 380 379 379 379 379 379 379 378 378 378 378 377 377 376 375 375 374 374 373 374 375 376 377 378 378 378 378 377 377 377 376 376 375 375 374 374 373 373 373 372 372 372 371 371 371 370 370 369 369 368 368 367 366 366 366 366 366 366 366 366 366 367 367 369 370 372 374 375 375 376 377 378 380 381 381 381 382 382 382 381 380 380 379 379 379 378 378 378 378 378 378 379 379 380 380 381 381 381 381 381 380 379 376 376 376 376 377 377 377 379 380 382 384 385 386 387 388 389 390 391 391 392 392 392 393 393 393 393 394 394 394 394 394 394 395 395 395 395 395 395 396 396 396 397 397 397 397 397 397 397 396 395 394 393 393 393 393 392 392 392 392 392 391 391 391 391 392 392 392 393 393 393 393 394 394 393 393 392 391 391 391 391 391 391 391 391 391 390 388 388 388 388 389 389 390 390 390 390 390 390 390 390 390 391 391 391 391 392 392 392 393 393 393 394 394 396 398 400 401 402 402 401 401 400 399 398 398 398 399 399 400 400 400 399 396 395 395 395 393 392 391 390 390 390 391 391 392 393 394 394 394 392 390 388 386 385 383 383 383 383 382 382 382 382 383 383 383 383 384 384 385 385 386 387 387 388 389 389 388 387 384 383 382 382 382 382 382 383 384 384 384 383 383 382 382 381 380 380 380 380 381 381 381 382 382 382 383 383 383 384 384 385 385 385 386 387 387 389 391 392 392 393 393 393 394 394 394 394 393 392 389 389 388 388 387 386 386 386 386 386 386 386 386 386 386 386 386 386 386 386 386 386 386 386 387 388 388 388 388 390 392 393 393 392 391 390 388 387 386 385 385 385 384 384 384 384 384 385 385 385 385 385 386 386 386 386 386 386 386 386 386 386 386 386 386 386 386 386 386 387 387 387 387 387 388 388 388 388 388 387 387 387 386 386 386 386 386 386 387 387 387 387 387 387 387 388 388 388 388 389 389 390 391 392 393 394 394 395 397 398 399 400 400 399 399 398 397 396 395 394 393 393 392 392 391 390 388 387 386 385 385 385 385 385 386 386 386 386 386 385 385 384 384 383 383 382 382 381 380 380 380 379 379 379 379 379 378 378 378 378 377 377 377 377 377 377 377 377 378 377 376 376 376 376 376 375 375 375 375 375 374 374 375 375 374 374 374 374 374 374 374 374 374 374 374 375 376 377 377 377 377 378 378 379 379
360 360 361 361 361 361 361 362 362 362 362 362 363 363 363 364 365 365 366 366 367 367 368 368 368 368 368 368 368 368 368 368 368 368 368 369 369 370 372 372 373 373 374 374 375 375 376 377 377 378 378 379 380 380 381 381 382 382 382 383 382 382 382 382 382 382 381 381 381 381 381 381 380 379 379 378 378 378 377 376 375 375 374 374 374 374 375 377 378 378 378 378 378 378 377 377 377 376 375 375 374 374 374 373 373 373 372 372 372 371 371 371 370 370 369 368 368 367 367 366 366 366 366 366 366 366 366 367 368 369 371 373 374 376 376 377 378 379 380 381 382 382 382 382 382 381 381 380 380 379 379 379 378 378 378 378 379 379 380 381 381 381 382 382 382 382 381 379 377 376 376 377 377 378 378 379 381 383 386 387 387 388 389 389 390 391 391 392 392 393 393 393 393 394 394 394 395 395 395 395 395 395 396 396 396 396 396 397 397 397 398 398 398 398 398 397 396 395 394 394 394 394 393 393 393 393 392 392 392 392 392 392 392 393 393 393 394 394 395 395 395 395 394 393 392 392 391 391 391 392 392 391 391 390 389 389 389 389 390 390 390 391 391 391 391 391 391 391 391 391 392 392 392 392 393 393 394 394 394 394 394 396 398 400 402 403 403 403 402 402 401 401 401 401 401 401 402 402 402 401 398 397 397 397 396 395 393 392 392 392 392 393 393 394 395 395 395 393 390 388 386 385 384 383 383 383 383 383 383 383 384 384 384 384 384 385 386 386 387 387 388 388 389 389 390 388 387 385 383 382 382 382 382 383 384 384 384 384 383 382 382 381 381 381 381 381 382 382 382 382 383 383 383 384 384 384 385 385 385 386 387 387 388 389 391 392 393 394 394 395 395 394 394 393 392 391 389 388 388 388 387 387 387 387 387 387 387 386 386 386 386 386 386 386 386 386 386 386 386 386 387 387 387 388 388 389 390 391 391 390 389 388 387 386 385 385 385 384 384 384 384 384 384 384 384 385 385 385 385 386 386 386 386 386 386 386 386 386 386 386 386 386 386 386 387 387 387 387 387 388 388 388 388 388 388 388 388 387 386 386 386 386 386 386 386 387 387 387 386 386 387 387 387 388 388 389 389 390 391 392 393 393 394 395 396 398 399 399 399 399 398 398 397 396 395 394 393 393 392 391 390 389 387 386 385 385 385 385 385 386 387 387 386 386 385 385 385 384 383 383 382 382 381 381 380 380 380 380 379 379 379 379 378 378 378 378 377 377 377 377 377 377 377 377 377 377 376 376 376 376 376 376 375 375 375 375 375 375 375 375 374 374 374 374 374 374 374 374 374 374 374 375 376 376 376 377 377 377 378 379 379
360 361 361 361 362 362 362 362 362 363 363 363 363 364 364 365 365 366 366 367 367 368 368 369 369 369 369 369 368 368 368 368 368 368 368 369 369 370 372 373 373 374 374 375 375 376 376 377 378 378 379 379 380 381 381 382 383 383 383 383 383 383 384 384 384 383 383 383 383 383 383 382 381 380 379 379 379 378 377 376 376 375 374 374 374 375 376 377 379 379 379 379 378 378 378 377 377 376 376 375 375 374 374 374 373 373 373 372 372 371 371 371 370 370 369 368 368 367 367 366 366 366 366 366 367 367 367 367 368 370 372 374 375 376 377 378 378 379 381 381 382 382 382 382 382 382 381 380 380 380 379 379 379 379 379 379 379 380 381 382 382 382 382 383 383 383 382 380 378 377 377 377 378 378 379 380 382 384 387 388 388 389 389 390 390 391 392 392 392 393 393 393 394 394 394 395 395 395 396 396 396 396 396 396 396 397 397 397 398 398 398 398 399 398 398 397 396 396 395 395 394 394 394 394 393 393 393 393 393 393 393 393 393 393 394 394 395 396 396 396 397 396 395 394 393 393 392 392 392 393 393 392 391 390 390 390 390 390 391 391 391 391 391 391 392 392 392 392 392 392 392 393 393 394 394 394 394 395 395 395 395 396 398 400 402 404 404 404 404 404 403 403 403 403 403 404 404 404 404 403 401 400 399 399 399 398 395 394 394 394 394 394 395 396 396 396 396 393 390 388 387 386 384 384 384 384 383 383 384 384 384 385 385 385 385 386 386 387 387 388 388 389 389 390 390 390 389 387 385 383 382 382 382 383 383 383 384 384 383 383 382 382 381 381 382 382 383 383 383 383 383 383 384 384 384 385 385 386 386 387 387 388 389 390 391 393 394 395 396 396 395 394 393 391 390 389 388 388 388 388 388 388 388 388 388 388 388 387 386 386 386 386 386 386 386 386 386 386 386 386 386 386 386 386 387 388 388 388 388 388 387 386 385 385 385 385 385 385 384 384 384 384 384 384 384 384 385 385 385 385 386 386 386 386 386 386 386 386 386 386 386 386 386 386 387 387 388 388 388 388 388 388 389 389 389 388 388 387 387 386 386 386 386 386 386 386 386 386 386 386 386 386 386 387 388 389 389 390 391 391 392 393 394 395 396 397 399 399 399 398 398 397 396 396 395 394 393 393 392 391 389 387 386 385 385 385 385 386 386 387 387 386 386 386 385 385 384 384 383 383 382 381 381 380 380 380 381 381 380 379 379 379 379 378 378 378 378 378 377 377 377 377 377 377 377 377 376 376 376 376 376 376 375 375 375 375 375 375 375 375 375 374 374 374 374 374 374 374 374 374 374 375 375 376 376 376 376 377 378 379 379
361 361 362 362 362 362 363 363 363 363 364 364 364 364 365 365 366 366 367 367 368 368 369 369 370 370 370 369 369 369 369 369 369 369 369 369 369 370 372 373 373 374 375 375 376 376 377 377 378 379 379 380 381 381 382 383 383 384 384 384 384 385 385 385 385 385 385 385 384 384 384 383 382 381 380 379 379 378 377 377 376 375 375 374 374 375 377 378 379 379 379 379 379 378 378 377 377 377 376 376 375 375 374 374 374 373 373 372 372 372 371 371 370 369 369 368 368 367 367 367 367 366 366 367 367 367 367 367 369 370 372 374 375 376 377 378 379 380 381 382 383 383 383 383 382 382 381 381 380 380 380 379 379 379 379 379 379 380 381 382 382 383 383 384 384 384 383 381 379 378 378 378 379 379 379 381 382 384 387 388 389 389 390 390 391 391 392 392 393 393 393 394 394 394 395 395 396 396 396 396 397 397 397 397 397 397 398 398 398 399 399 399 399 399 399 398 397 396 396 396 395 395 395 395 394 394 394 394 394 394 394 394 394 394 394 395 396 397 398 398 399 398 397 396 394 394 393 393 393 393 394 393 391 390 390 390 391 391 391 391 391 391 391 392 392 393 393 393 393 393 394 394 395 395 395 395 396 396 396 396 396 397 399 401 403 405 406 406 406 406 406 406 406 406 406 406 407 407 406 405 403 402 402 402 402 400 397 396 396 396 396 396 397 398 398 398 396 394 391 389 387 386 385 385 384 384 384 384 384 385 385 385 386 386 386 386 387 388 388 388 389 389 390 391 391 391 390 389 387 385 384 383 383 382 382 383 384 384 383 383 383 382 382 382 382 383 383 384 384 384 384 384 384 385 385 385 386 386 387 388 388 389 389 390 391 392 393 394 395 395 394 393 392 391 390 389 389 388 388 388 388 389 389 389 389 389 389 388 387 386 386 386 386 386 386 386 386 386 386 386 386 386 385 386 386 386 387 387 386 386 385 385 385 385 385 385 385 385 384 384 384 384 384 384 384 384 384 385 385 385 386 386 386 386 386 386 386 386 386 386 386 386 386 387 387 388 388 388 388 388 388 388 389 389 389 389 388 387 387 386 386 386 386 386 386 386 386 386 386 386 386 386 386 387 388 388 389 389 390 391 392 393 393 394 396 397 398 399 399 398 398 397 396 395 395 394 393 392 391 389 387 386 385 385 385 385 386 386 387 387 387 386 386 385 385 385 384 384 383 382 382 381 381 381 380 381 381 381 380 379 379 379 379 378 378 378 378 378 378 377 377 377 377 377 377 377 376 376 376 376 376 376 375 375 375 375 375 375 375 375 375 375 375 374 374 374 374 374 374 374 374 374 375 375 376 376 376 377 379 379 380
361 362 362 363 363 363 364 364 364 364 364 365 365 365 365 366 366 367 367 368 368 369 369 370 370 371 371 370 370 369 369 369 369 369 369 369 370 371 372 373 374 374 375 375 376 377 377 378 378 379 380 380 381 382 382 383 384 385 386 386 386 386 386 387 388 388 387 386 386 385 385 384 383 381 380 379 379 378 377 377 376 375 375 375 375 376 377 378 379 380 379 379 379 378 378 378 377 377 376 376 375 375 375 374 374 373 373 373 372 372 371 371 370 369 368 368 368 367 367 367 367 367 367 367 367 367 367 368 369 371 373 374 376 377 378 379 379 380 382 382 383 383 383 383 382 382 381 381 381 380 380 380 380 380 380 380 380 380 382 382 383 384 384 385 385 384 384 382 380 379 379 379 379 380 380 381 382 384 386 388 388 389 390 390 391 391 392 392 393 393 394 394 394 395 395 396 396 396 397 397 397 397 397 398 398 398 398 399 399 399 400 400 400 399 399 398 398 397 397 396 396 396 396 396 395 395 395 395 395 394 394 394 394 395 395 396 397 399 400 401 401 400 399 398 396 395 394 394 394 394 395 394 392 391 391 391 391 392 392 392 392 392 392 392 393 393 393 394 394 395 395 396 396 396 397 397 397 397 397 398 398 399 399 401 403 405 407 408 409 409 409 409 409 409 409 409 409 408 408 407 405 405 404 403 403 401 399 398 398 398 398 399 399 400 400 399 398 395 392 390 388 387 386 386 385 385 385 385 385 385 386 386 386 387 387 388 388 389 389 389 390 390 391 391 392 392 392 391 390 388 385 384 383 383 383 383 383 383 383 383 383 383 383 383 383 383 384 384 385 385 384 385 385 385 386 386 387 387 388 388 389 389 390 390 391 391 392 392 392 392 392 392 392 391 391 390 390 390 389 389 390 390 390 389 389 389 389 389 388 387 386 386 386 386 386 386 386 386 386 386 385 385 385 385 385 385 385 385 385 385 385 385 385 385 385 385 385 384 384 384 384 384 383 383 383 384 384 385 385 385 386 386 386 386 386 386 386 386 386 386 387 386 386 387 387 388 388 388 388 388 388 389 389 389 389 389 388 387 386 386 386 386 386 386 386 386 386 386 386 386 386 386 386 386 387 388 389 390 390 391 391 392 393 394 395 397 398 399 399 399 398 397 396 395 395 394 393 392 389 388 386 385 385 385 385 386 387 387 387 387 386 386 385 385 385 384 384 383 383 383 382 382 382 381 381 381 381 381 380 380 379 379 379 379 378 378 378 378 378 378 377 377 377 377 377 377 376 376 376 376 376 376 376 376 375 375 375 375 375 375 375 375 375 375 375 374 374 374 374 374 374 374 374 375 376 376 377 378 379 379 380
362 362 363 363 364 364 365 365 365 365 365 365 365 366 366 366 367 367 368 369 369 370 370 371 371 372 372 371 371 370 370 370 369 369 370 370 370 371 372 373 373 374 375 376 376 377 378 378 379 379 380 381 381 382 383 384 385 386 387 387 387 387 388 388 389 389 389 388 387 386 386 384 383 382 380 379 379 378 377 376 376 375 375 375 376 377 378 379 380 380 380 379 379 379 378 378 377 377 376 376 375 375 375 374 374 374 373 373 372 372 371 370 370 369 368 368 368 368 367 367 367 367 367 367 367 367 367 368 369 371 373 375 376 377 378 379 380 381 382 383 383 384 383 383 383 382 382 381 381 381 380 380 380 380 380 380 380 381 382 383 384 384 385 385 386 385 384 383 381 380 379 380 380 380 381 381 382 384 386 387 388 389 390 390 391 391 392 392 393 393 394 394 395 395 396 396 397 397 397 398 398 398 398 398 398 399 399 399 400 400 400 400 400 400 399 399 398 398 397 397 397 397 397 397 397 396 396 396 395 395 395 395 395 395 396 397 398 400 401 402 403 402 401 399 397 396 395 395 395 396 396 395 392 392 391 392 392 393 393 393 393 393 393 393 394 394 394 395 396 396 397 398 398 398 398 398 398 398 399 399 400 401 401 403 404 406 408 410 411 411 412 412 412 412 411 411 411 410 410 409 408 407 406 405 404 402 400 400 400 400 400 401 401 402 402 401 399 396 393 391 389 388 387 386 386 386 386 386 386 387 387 387 387 388 388 389 389 390 390 390 390 391 392 392 393 393 392 392 391 390 388 386 384 383 383 383 383 383 383 384 384 384 383 384 384 384 385 385 385 385 385 385 386 386 387 387 388 388 389 389 390 390 391 391 391 391 392 392 391 391 391 391 392 392 392 391 391 391 390 391 391 391 391 390 390 390 390 390 389 388 387 387 387 387 387 387 387 386 386 385 385 385 385 385 385 385 385 385 385 385 385 385 385 385 385 385 384 384 384 384 384 383 383 383 383 383 384 384 385 385 386 386 386 386 386 386 386 386 386 387 387 387 387 387 387 388 388 388 388 388 388 389 389 390 389 389 388 387 386 386 386 386 386 386 386 386 386 386 386 386 386 386 386 386 386 387 389 389 390 390 391 392 392 394 395 396 397 398 399 399 398 398 396 395 395 394 392 390 388 386 385 385 385 385 386 386 387 387 387 387 386 386 386 385 385 384 384 384 383 383 383 382 382 382 382 382 381 381 381 380 380 379 379 379 378 378 378 378 378 378 377 377 377 377 377 377 377 376 376 376 376 376 376 376 376 375 375 375 375 375 375 375 375 375 375 375 374 374 374 374 374 374 374 375 375 376 377 378 379 379 380
362 363 363 364 364 365 365 366 365 366 366 366 366 366 367 367 368 368 369 369 370 371 371 372 372 373 373 373 372 371 371 370 370 370 370 370 370 371 371 372 373 374 375 376 376 377 378 378 379 380 380 381 382 382 383 384 385 386 387 388 388 388 389 390 391 391 391 390 389 388 387 385 383 382 381 379 378 377 377 376 376 376 375 376 376 378 380 380 381 380 380 380 379 379 378 378 377 377 376 376 376 375 375 374 374 374 373 373 372 371 371 370 369 369 368 368 368 368 368 367 367 367 367 367 367 367 367 368 369 371 373 375 376 377 379 380 381 381 382 383 384 384 384 383 383 382 382 382 381 381 381 381 381 381 381 381 381 381 382 383 384 385 385 386 386 386 385 384 382 381 380 380 381 381 381 382 382 383 384 386 388 389 390 390 391 392 392 393 393 393 394 395 395 396 396 397 397 398 398 398 398 398 399 399 399 399 399 400 400 400 400 400 400 400 400 400 399 398 398 398 398 398 398 398 398 398 398 397 396 396 396 396 396 396 397 398 399 401 402 403 404 404 403 401 399 397 396 396 397 397 398 396 393 392 392 393 393 394 395 395 395 394 394 395 395 396 396 397 398 399 400 400 400 400 399 399 399 400 400 401 402 403 404 405 406 407 409 411 412 413 414 414 414 414 413 413 413 413 411 410 410 409 409 407 405 403 402 401 402 403 403 403 404 404 404 403 400 397 394 392 390 389 388 387 387 387 386 387 388 389 389 388 388 389 390 390 391 391 391 391 391 392 393 393 393 393 393 393 392 391 390 388 386 385 383 383 383 383 383 384 384 384 384 384 385 385 385 386 386 386 386 386 387 387 388 388 389 389 391 391 392 392 392 392 391 391 392 392 392 392 392 392 393 393 393 392 392 391 391 392 392 392 392 392 392 391 391 390 390 389 389 388 389 389 389 389 388 387 386 385 385 385 385 385 385 385 385 385 385 385 385 385 385 384 384 384 384 384 384 384 384 383 383 383 383 383 384 384 384 385 386 386 386 386 386 386 386 386 387 387 387 387 387 387 388 388 388 388 388 388 388 389 390 390 390 389 387 386 386 386 386 386 386 386 386 386 386 386 386 386 386 386 386 386 386 387 388 389 389 390 390 391 392 393 394 395 396 397 398 398 398 397 396 395 395 393 390 388 386 385 385 385 385 386 387 388 388 387 387 387 387 386 386 385 385 385 384 384 384 384 383 383 383 383 383 382 382 381 381 380 380 380 379 379 379 378 378 378 378 378 377 377 377 377 377 377 377 377 377 376 376 376 376 376 376 376 375 375 375 375 375 375 375 375 375 375 375 374 374 374 374 374 374 375 375 375 376 377 378 379 380
362 363 364 364 365 365 366 366 366 366 366 366 367 367 367 368 368 369 370 370 371 372 372 372 373 373 374 373 373 372 371 371 371 371 371 371 371 371 372 372 373 374 375 376 377 377 378 379 379 380 381 381 382 382 383 384 385 386 388 388 388 389 390 391 392 392 392 391 390 389 388 386 384 383 381 380 378 377 377 376 376 376 376 376 377 378 380 381 381 381 380 380 379 379 378 378 377 377 376 376 376 375 375 374 374 373 373 372 372 371 371 370 369 369 369 368 368 368 368 368 368 367 367 367 367 367 367 368 369 371 373 375 376 377 379 380 381 382 382 383 384 384 384 384 383 383 382 382 382 382 381 381 381 381 381 381 381 381 382 383 384 385 386 386 386 386 385 384 383 382 381 381 382 382 382 383 383 384 384 386 388 389 390 390 391 392 392 393 393 394 394 395 396 396 397 397 398 398 398 399 399 399 399 399 400 400 400 400 400 401 401 401 401 402 402 401 400 399 399 399 399 399 399 399 400 400 400 399 397 397 397 397 397 397 398 399 400 401 403 404 405 405 405 403 400 398 397 397 398 399 399 398 395 393 393 394 395 396 397 397 396 396 396 396 397 398 398 398 400 401 402 402 402 401 401 401 401 401 402 403 404 405 407 408 409 410 411 412 413 414 415 416 416 416 416 415 415 415 414 413 412 412 411 409 407 405 404 404 404 405 405 405 406 406 405 403 400 397 395 393 391 390 389 388 388 388 388 388 390 390 390 390 390 391 391 392 392 392 392 392 393 393 394 394 394 394 393 393 393 392 392 390 388 386 385 384 383 383 383 384 384 384 385 385 385 385 386 386 386 386 387 387 388 389 390 390 390 390 391 391 392 392 392 392 392 392 393 394 394 394 394 394 394 394 393 393 392 392 392 392 392 392 391 391 392 392 391 391 390 390 389 389 390 389 389 388 387 386 385 385 385 385 385 385 385 385 385 385 385 385 385 384 384 384 384 384 384 384 384 384 384 383 383 382 383 383 383 383 384 384 385 385 385 385 385 385 386 386 386 387 387 387 387 387 387 387 387 388 388 388 388 389 390 390 389 388 387 386 386 386 386 386 386 386 386 386 386 386 386 386 386 386 386 386 386 387 388 389 389 390 390 391 391 392 393 394 395 396 397 397 397 397 396 395 393 391 388 386 385 385 385 385 386 387 388 388 388 388 387 387 387 387 386 386 386 385 385 385 385 385 384 384 384 384 383 383 382 382 382 381 381 380 380 379 379 379 378 378 378 378 377 377 377 377 377 377 377 377 377 377 376 376 376 376 376 376 376 376 376 375 375 375 375 375 375 375 375 375 375 374 374 374 374 374 375 375 376 377 378 379 380
