ncols         500
nrows         38
xllcorner     335983.8501
yllcorner     6144503.5042
cellsize      30
NODATA_value -9999                                                                              
1098 1095 1091 1088 1085 1083 1081 1079 1077 1075 1074 1073 1073 1072 1072 1072 1073 1074 1075 1076 1078 1080 1082 1084 1087 1089 1092 1095 1098 1101 1104 1106 1109 1112 1114 1117 1119 1121 1124 1126 1128 1130 1131 1133 1135 1137 1138 1140 1142 1143 1145 1146 1147 1149 1150 1151 1151 1152 1152 1152 1152 1151 1150 1149 1148 1146 1144 1142 1139 1137 1134 1132 1129 1127 1125 1123 1121 1119 1117 1116 1115 1115 1114 1114 1114 1114 1115 1116 1116 1117 1119 1120 1121 1123 1124 1126 1128 1130 1131 1133 1135 1137 1138 1140 1141 1142 1143 1144 1145 1145 1145 1145 1145 1144 1143 1143 1141 1140 1138 1136 1134 1132 1129 1127 1124 1121 1117 1114 1110 1106 1103 1099 1095 1091 1088 1084 1080 1077 1074 1070 1067 1064 1062 1059 1056 1054 1052 1050 1048 1046 1044 1042 1041 1040 1038 1037 1036 1035 1034 1033 1032 1031 1030 1029 1027 1026 1024 1023 1021 1019 1017 1015 1013 1011 1009 1008 1008 1007 1008 1009 1010 1013 1016 1020 1025 1031 1038 1044 1051 1059 1066 1073 1080 1087 1093 1099 1105 1109 1113 1115 1117 1119 1120 1120 1120 1119 1118 1117 1116 1114 1113 1111 1109 1108 1106 1105 1104 1102 1101 1100 1099 1098 1096 1095 1094 1093 1092 1091 1089 1088 1087 1086 1085 1083 1082 1081 1081 1080 1080 1079 1079 1079 1079 1080 1081 1082 1083 1084 1085 1086 1088 1089 1090 1091 1092 1092 1093 1093 1093 1093 1092 1091 1091 1090 1089 1088 1088 1087 1086 1086 1086 1086 1086 1087 1087 1088 1090 1091 1092 1094 1095 1097 1098 1099 1101 1102 1102 1103 1103 1103 1103 1102 1102 1101 1100 1100 1099 1098 1097 1096 1096 1095 1095 1094 1094 1094 1094 1095 1095 1096 1097 1098 1099 1101 1102 1104 1106 1109 1111 1114 1117 1120 1123 1127 1130 1134 1138 1142 1147 1151 1155 1160 1165 1170 1175 1181 1187 1193 1200 1208 1217 1227 1237 1249 1261 1275 1290 1307 1325 1344 1364 1384 1406 1428 1450 1473 1495 1518 1540 1562 1583 1604 1623 1642 1660 1678 1694 1710 1726 1741 1755 1769 1782 1795 1808 1821 1833 1845 1857 1868 1880 1891 1902 1912 1923 1933 1942 1951 1960 1968 1976 1983 1990 1997 2003 2008 2013 2017 2022 2025 2029 2031 2034 2036 2038 2040 2041 2042 2043 2043 2044 2044 2044 2044 2044 2044 2044 2045 2045 2046 2047 2048 2049 2051 2053 2055 2058 2061 2065 2069 2073 2078 2083 2089 2095 2102 2109 2117 2125 2133 2142 2151 2159 2168 2176 2184 2192 2199 2206 2212 2217 2221 2225 2227 2228 2229 2229 2228 2226 2224 2222 2219 2215 2211 2207 2202 2197 2192 2187 2181 2176 2170 2163 2156 2149 2142 2134 2125 2116 2107 2096 2086 2075 2063 2051 2039 2026 2013 2000 1988 1975 1962 1950 1938 1927 1916 1905 1896 1887 1879
1101 1098 1094 1091 1088 1086 1084 1082 1080 1079 1078 1077 1076 1076 1076 1077 1077 1078 1080 1081 1083 1085 1088 1090 1093 1096 1099 1102 1105 1108 1111 1114 1116 1119 1122 1124 1127 1129 1131 1133 1135 1137 1139 1141 1143 1144 1146 1148 1149 1151 1152 1153 1154 1155 1156 1157 1157 1158 1158 1158 1157 1157 1156 1154 1153 1151 1149 1147 1144 1142 1139 1137 1134 1132 1130 1127 1125 1124 1122 1121 1120 1119 1119 1119 1119 1119 1119 1120 1121 1122 1123 1124 1125 1127 1128 1130 1131 1133 1134 1136 1138 1139 1141 1142 1143 1144 1145 1146 1147 1147 1147 1147 1147 1146 1146 1145 1144 1142 1141 1139 1137 1135 1132 1130 1127 1124 1120 1117 1113 1110 1106 1102 1099 1095 1091 1088 1084 1081 1077 1074 1071 1068 1065 1063 1060 1058 1056 1053 1052 1050 1048 1047 1045 1044 1043 1042 1041 1040 1039 1038 1037 1036 1035 1034 1033 1032 1031 1029 1027 1025 1023 1021 1020 1018 1017 1016 1015 1015 1015 1017 1019 1021 1025 1029 1035 1041 1047 1054 1062 1069 1077 1084 1092 1099 1105 1111 1117 1121 1125 1128 1130 1132 1133 1133 1133 1132 1131 1130 1129 1127 1125 1124 1122 1120 1119 1117 1116 1115 1113 1112 1111 1109 1108 1106 1105 1104 1102 1101 1099 1097 1096 1094 1092 1091 1089 1088 1086 1085 1084 1083 1083 1082 1082 1083 1083 1084 1084 1085 1086 1087 1088 1089 1090 1091 1092 1092 1093 1093 1092 1092 1091 1091 1090 1089 1088 1087 1086 1085 1084 1084 1084 1084 1084 1084 1085 1086 1088 1089 1090 1092 1094 1095 1096 1098 1099 1100 1101 1101 1101 1101 1101 1100 1100 1099 1098 1097 1096 1095 1094 1093 1092 1092 1091 1091 1090 1090 1090 1091 1091 1092 1092 1093 1095 1096 1097 1099 1101 1103 1106 1108 1111 1114 1117 1120 1124 1127 1131 1135 1139 1144 1148 1153 1158 1163 1168 1174 1180 1187 1194 1202 1211 1221 1232 1243 1256 1270 1286 1303 1321 1340 1360 1381 1402 1424 1447 1470 1492 1515 1537 1559 1580 1601 1620 1639 1657 1674 1691 1707 1722 1736 1751 1764 1777 1790 1803 1815 1827 1839 1850 1861 1873 1883 1894 1904 1914 1924 1933 1942 1950 1958 1966 1973 1980 1986 1992 1997 2002 2007 2011 2015 2018 2021 2024 2027 2029 2031 2032 2034 2035 2036 2037 2037 2038 2039 2039 2040 2040 2041 2042 2043 2044 2046 2047 2049 2052 2054 2057 2061 2064 2068 2073 2078 2083 2089 2095 2102 2109 2117 2125 2133 2142 2151 2159 2168 2176 2185 2192 2200 2206 2212 2217 2221 2225 2227 2228 2229 2229 2228 2226 2224 2221 2218 2214 2210 2206 2201 2196 2191 2186 2180 2174 2168 2162 2155 2148 2140 2132 2124 2115 2105 2095 2085 2074 2062 2051 2039 2026 2014 2001 1989 1977 1964 1952 1941 1930 1919 1909 1900 1891 1884
1104 1100 1097 1094 1091 1089 1087 1085 1083 1082 1081 1080 1080 1080 1080 1081 1082 1083 1084 1086 1088 1091 1093 1096 1099 1102 1105 1108 1111 1114 1117 1121 1124 1126 1129 1132 1134 1137 1139 1141 1143 1145 1147 1149 1151 1152 1154 1155 1157 1158 1159 1160 1161 1162 1163 1163 1164 1164 1164 1163 1163 1162 1161 1160 1158 1156 1154 1152 1149 1147 1144 1141 1139 1137 1134 1132 1130 1128 1127 1126 1125 1124 1123 1123 1123 1123 1124 1124 1125 1126 1127 1128 1129 1130 1131 1133 1134 1136 1137 1139 1140 1142 1143 1144 1145 1146 1147 1148 1149 1149 1149 1149 1149 1148 1148 1147 1146 1145 1143 1142 1140 1137 1135 1132 1130 1127 1123 1120 1117 1113 1109 1106 1102 1098 1095 1091 1088 1084 1081 1078 1075 1072 1069 1067 1064 1062 1060 1057 1056 1054 1052 1051 1049 1048 1047 1046 1046 1045 1044 1043 1043 1042 1041 1040 1039 1038 1037 1035 1034 1032 1030 1028 1027 1025 1024 1023 1023 1023 1023 1025 1027 1030 1033 1038 1044 1050 1057 1064 1072 1080 1087 1095 1103 1110 1117 1123 1129 1134 1138 1141 1143 1145 1146 1146 1146 1145 1144 1143 1141 1140 1138 1136 1134 1133 1131 1130 1128 1127 1125 1124 1122 1121 1119 1117 1116 1114 1112 1110 1108 1106 1104 1102 1100 1098 1096 1094 1092 1090 1089 1087 1086 1086 1085 1085 1085 1086 1086 1087 1088 1089 1089 1090 1091 1092 1092 1093 1093 1093 1092 1092 1091 1090 1089 1088 1087 1085 1084 1083 1083 1082 1082 1082 1082 1083 1083 1085 1086 1087 1089 1090 1092 1094 1095 1096 1098 1099 1099 1100 1100 1100 1099 1099 1098 1097 1096 1095 1094 1093 1092 1091 1090 1089 1088 1088 1087 1087 1087 1087 1088 1088 1089 1090 1091 1092 1093 1095 1097 1099 1101 1103 1106 1108 1111 1114 1117 1121 1125 1128 1132 1137 1141 1146 1151 1156 1161 1167 1173 1180 1188 1196 1205 1215 1226 1238 1252 1266 1282 1299 1317 1336 1356 1377 1399 1421 1444 1466 1489 1512 1534 1556 1577 1597 1617 1636 1654 1671 1687 1703 1718 1732 1746 1759 1772 1785 1797 1809 1821 1832 1843 1854 1865 1876 1886 1896 1905 1915 1924 1932 1940 1948 1956 1963 1969 1975 1981 1986 1991 1996 2000 2004 2008 2011 2014 2017 2019 2021 2023 2025 2027 2028 2029 2030 2032 2033 2034 2035 2036 2037 2038 2040 2041 2043 2045 2047 2050 2053 2056 2059 2063 2067 2071 2076 2082 2087 2094 2101 2108 2116 2124 2132 2141 2150 2159 2167 2176 2184 2192 2199 2206 2212 2217 2221 2224 2226 2228 2228 2228 2227 2226 2223 2221 2217 2214 2209 2205 2200 2195 2190 2185 2179 2173 2167 2160 2154 2146 2139 2131 2122 2114 2104 2094 2084 2073 2062 2051 2039 2027 2015 2002 1990 1978 1967 1955 1944 1933 1923 1913 1904 1896 1889
1106 1103 1100 1097 1094 1092 1090 1088 1086 1085 1084 1084 1084 1084 1084 1085 1086 1088 1089 1091 1094 1096 1099 1102 1105 1108 1111 1114 1118 1121 1124 1128 1131 1134 1136 1139 1142 1144 1147 1149 1151 1153 1155 1157 1158 1160 1161 1163 1164 1165 1166 1167 1168 1169 1169 1170 1170 1170 1170 1169 1168 1167 1166 1165 1163 1161 1159 1156 1154 1151 1149 1146 1144 1141 1139 1137 1135 1133 1131 1130 1129 1128 1128 1127 1127 1127 1128 1128 1129 1129 1130 1131 1132 1134 1135 1136 1137 1139 1140 1142 1143 1144 1145 1147 1148 1149 1149 1150 1151 1151 1151 1151 1151 1151 1150 1149 1148 1147 1146 1144 1142 1140 1138 1135 1132 1129 1126 1123 1120 1116 1113 1109 1105 1102 1098 1095 1091 1088 1085 1081 1079 1076 1073 1070 1068 1066 1064 1062 1060 1058 1057 1055 1054 1053 1052 1051 1051 1050 1049 1049 1048 1048 1047 1046 1045 1044 1043 1042 1040 1039 1037 1035 1034 1032 1031 1030 1030 1030 1031 1033 1035 1038 1042 1047 1053 1059 1066 1074 1082 1090 1098 1106 1114 1122 1129 1135 1141 1146 1150 1153 1155 1157 1158 1158 1158 1158 1157 1155 1154 1152 1150 1148 1147 1145 1143 1141 1140 1138 1137 1135 1133 1132 1130 1128 1126 1124 1122 1120 1117 1115 1112 1110 1107 1105 1102 1100 1097 1095 1094 1092 1090 1089 1089 1088 1088 1088 1088 1089 1089 1090 1091 1091 1092 1093 1093 1093 1093 1093 1092 1091 1090 1089 1088 1087 1086 1084 1083 1082 1081 1081 1080 1080 1080 1081 1082 1083 1084 1086 1087 1089 1091 1092 1094 1096 1097 1098 1099 1099 1099 1099 1099 1098 1097 1096 1095 1094 1093 1092 1090 1089 1088 1087 1087 1086 1086 1085 1085 1085 1085 1086 1086 1087 1088 1089 1090 1092 1093 1095 1097 1099 1101 1104 1106 1109 1112 1115 1119 1122 1126 1130 1135 1139 1144 1149 1155 1161 1167 1174 1182 1191 1200 1210 1221 1234 1247 1262 1277 1295 1313 1332 1353 1374 1396 1418 1441 1463 1486 1509 1531 1553 1574 1594 1614 1632 1650 1667 1683 1699 1713 1728 1741 1755 1767 1780 1791 1803 1814 1826 1836 1847 1858 1868 1878 1887 1897 1905 1914 1922 1930 1938 1945 1952 1959 1965 1970 1975 1980 1985 1989 1993 1997 2000 2004 2006 2009 2012 2014 2016 2018 2020 2021 2023 2024 2026 2027 2029 2030 2032 2034 2035 2037 2039 2042 2044 2047 2050 2053 2057 2060 2065 2069 2074 2080 2086 2092 2099 2106 2114 2122 2131 2139 2148 2157 2166 2175 2183 2191 2198 2205 2211 2216 2220 2223 2226 2227 2227 2227 2226 2225 2222 2220 2216 2212 2208 2204 2199 2194 2189 2183 2178 2172 2166 2159 2152 2145 2138 2130 2121 2113 2103 2094 2084 2073 2062 2051 2039 2027 2016 2004 1992 1980 1969 1958 1947 1936 1927 1917 1909 1901 1894
1109 1105 1102 1099 1096 1094 1092 1091 1089 1088 1088 1087 1087 1088 1088 1089 1091 1092 1094 1096 1099 1101 1104 1107 1111 1114 1117 1121 1124 1128 1131 1134 1138 1141 1144 1146 1149 1152 1154 1156 1158 1160 1162 1164 1166 1167 1169 1170 1171 1172 1173 1174 1175 1175 1176 1176 1176 1176 1175 1175 1174 1173 1171 1170 1168 1166 1163 1161 1158 1156 1153 1151 1148 1146 1143 1141 1139 1137 1136 1134 1133 1133 1132 1132 1131 1131 1132 1132 1133 1133 1134 1135 1136 1137 1138 1139 1140 1142 1143 1144 1146 1147 1148 1149 1150 1151 1152 1152 1153 1153 1153 1153 1153 1153 1152 1151 1150 1149 1148 1146 1145 1143 1140 1138 1135 1132 1129 1126 1123 1119 1116 1112 1109 1105 1102 1098 1095 1091 1088 1085 1082 1079 1077 1074 1072 1070 1068 1066 1064 1062 1061 1060 1059 1058 1057 1056 1056 1055 1055 1054 1054 1053 1053 1052 1051 1050 1049 1048 1047 1045 1044 1042 1041 1039 1038 1038 1038 1038 1039 1041 1043 1046 1050 1056 1062 1068 1076 1084 1092 1100 1108 1117 1125 1133 1140 1146 1152 1158 1162 1165 1167 1169 1170 1171 1170 1170 1169 1167 1166 1164 1162 1160 1158 1156 1155 1153 1151 1149 1148 1146 1144 1142 1140 1138 1136 1134 1131 1129 1126 1123 1120 1117 1114 1111 1109 1106 1103 1101 1098 1096 1095 1093 1092 1091 1091 1091 1091 1091 1091 1092 1092 1093 1093 1094 1094 1094 1094 1093 1092 1091 1090 1089 1088 1086 1085 1083 1082 1081 1080 1079 1079 1079 1079 1080 1081 1082 1083 1085 1087 1088 1090 1092 1094 1095 1096 1098 1098 1099 1099 1099 1099 1098 1097 1096 1095 1094 1093 1091 1090 1089 1088 1087 1086 1085 1085 1084 1084 1084 1085 1085 1085 1086 1087 1088 1089 1090 1091 1093 1094 1096 1098 1100 1103 1105 1108 1111 1114 1117 1121 1125 1129 1134 1138 1143 1149 1155 1162 1169 1177 1185 1195 1205 1216 1229 1242 1257 1273 1290 1309 1329 1349 1370 1392 1415 1437 1460 1483 1505 1528 1549 1570 1591 1610 1629 1646 1663 1679 1695 1709 1723 1737 1750 1762 1774 1786 1797 1808 1819 1829 1840 1850 1860 1869 1879 1888 1896 1905 1913 1920 1928 1935 1941 1948 1954 1959 1964 1969 1974 1978 1982 1986 1990 1993 1996 1999 2002 2004 2006 2009 2011 2013 2015 2017 2019 2020 2022 2024 2026 2028 2030 2032 2035 2037 2040 2043 2046 2049 2053 2057 2061 2066 2071 2077 2083 2089 2096 2103 2111 2120 2128 2137 2146 2155 2164 2173 2181 2189 2196 2203 2209 2214 2219 2222 2224 2226 2226 2226 2225 2223 2221 2218 2215 2211 2207 2203 2198 2193 2188 2182 2176 2171 2164 2158 2151 2144 2137 2129 2120 2112 2103 2093 2083 2073 2062 2051 2040 2028 2017 2005 1994 1982 1971 1960 1950 1940 1930 1921 1913 1905 1899
1110 1107 1104 1101 1099 1096 1095 1093 1092 1091 1091 1091 1091 1092 1092 1094 1095 1097 1099 1101 1104 1107 1110 1113 1116 1120 1123 1127 1130 1134 1138 1141 1144 1148 1151 1154 1156 1159 1161 1164 1166 1168 1170 1172 1173 1175 1176 1177 1178 1179 1180 1181 1181 1182 1182 1182 1182 1181 1181 1180 1179 1178 1176 1174 1172 1170 1168 1165 1163 1160 1158 1155 1152 1150 1147 1145 1143 1141 1140 1138 1137 1136 1136 1135 1135 1135 1135 1136 1136 1137 1137 1138 1139 1140 1141 1142 1143 1144 1146 1147 1148 1149 1150 1151 1152 1153 1154 1154 1155 1155 1155 1155 1155 1155 1154 1154 1153 1152 1150 1149 1147 1145 1143 1140 1138 1135 1132 1129 1125 1122 1119 1115 1112 1108 1105 1101 1098 1095 1092 1089 1086 1083 1080 1078 1076 1074 1072 1070 1068 1067 1065 1064 1063 1062 1062 1061 1061 1060 1060 1060 1059 1059 1058 1058 1057 1057 1056 1055 1053 1052 1050 1049 1047 1046 1045 1045 1045 1045 1047 1048 1051 1054 1059 1064 1070 1077 1085 1093 1101 1110 1118 1127 1135 1143 1150 1157 1163 1169 1173 1176 1179 1180 1182 1182 1182 1181 1180 1179 1177 1175 1173 1171 1169 1167 1165 1164 1162 1160 1158 1156 1154 1152 1150 1148 1145 1143 1140 1137 1134 1131 1128 1125 1121 1118 1115 1112 1109 1106 1103 1101 1099 1097 1096 1095 1094 1094 1093 1093 1093 1094 1094 1094 1095 1095 1095 1095 1094 1094 1093 1092 1090 1089 1087 1086 1084 1083 1081 1080 1079 1078 1078 1078 1078 1079 1080 1081 1083 1084 1086 1088 1090 1092 1093 1095 1097 1098 1099 1099 1100 1100 1099 1099 1098 1097 1096 1095 1093 1092 1091 1090 1088 1087 1087 1086 1085 1085 1085 1085 1085 1085 1086 1086 1087 1088 1088 1089 1091 1092 1093 1095 1096 1098 1100 1102 1105 1107 1110 1113 1117 1120 1124 1128 1133 1138 1144 1150 1156 1163 1171 1180 1190 1200 1212 1224 1238 1253 1269 1286 1305 1325 1345 1367 1389 1411 1434 1457 1479 1502 1524 1546 1567 1587 1607 1625 1643 1659 1675 1690 1705 1719 1732 1744 1757 1768 1780 1791 1802 1812 1822 1832 1842 1852 1861 1870 1879 1887 1895 1903 1910 1918 1924 1931 1937 1943 1948 1953 1958 1963 1967 1971 1975 1979 1982 1985 1988 1991 1994 1997 1999 2002 2004 2006 2008 2011 2013 2015 2017 2020 2022 2024 2027 2029 2032 2035 2038 2041 2045 2049 2053 2057 2062 2067 2073 2079 2085 2092 2100 2108 2116 2125 2134 2143 2152 2161 2170 2178 2186 2194 2201 2207 2212 2217 2220 2222 2224 2224 2224 2223 2222 2220 2217 2214 2210 2206 2201 2197 2192 2186 2181 2175 2169 2163 2157 2150 2143 2136 2128 2120 2111 2102 2093 2083 2073 2062 2051 2040 2029 2018 2006 1995 1984 1973 1963 1953 1943 1934 1925 1917 1910 1904
1112 1109 1106 1103 1101 1099 1097 1096 1095 1094 1094 1094 1095 1095 1096 1098 1099 1101 1104 1106 1109 1112 1115 1118 1122 1126 1129 1133 1137 1140 1144 1148 1151 1154 1157 1160 1163 1166 1168 1171 1173 1175 1177 1179 1180 1182 1183 1184 1185 1186 1187 1188 1188 1188 1188 1188 1188 1187 1186 1185 1184 1183 1181 1179 1177 1175 1172 1170 1167 1164 1162 1159 1156 1154 1151 1149 1147 1145 1144 1142 1141 1140 1140 1139 1139 1139 1139 1139 1139 1140 1140 1141 1142 1143 1144 1145 1146 1147 1148 1149 1150 1151 1152 1153 1154 1155 1156 1156 1157 1157 1157 1157 1157 1157 1156 1156 1155 1154 1152 1151 1149 1147 1145 1143 1140 1137 1134 1131 1128 1125 1121 1118 1115 1111 1108 1104 1101 1098 1095 1092 1089 1087 1084 1082 1080 1078 1076 1074 1072 1071 1070 1069 1068 1067 1067 1066 1066 1065 1065 1065 1065 1065 1064 1064 1063 1063 1062 1061 1060 1058 1057 1055 1054 1053 1052 1052 1052 1053 1054 1056 1059 1062 1067 1072 1079 1086 1093 1102 1110 1119 1128 1136 1145 1153 1161 1168 1174 1179 1183 1187 1189 1191 1192 1193 1193 1192 1191 1190 1188 1186 1184 1182 1180 1178 1176 1174 1172 1170 1168 1166 1164 1161 1159 1157 1154 1151 1148 1145 1142 1139 1135 1132 1128 1124 1121 1117 1114 1111 1108 1105 1103 1101 1099 1098 1097 1097 1096 1096 1096 1096 1096 1096 1096 1096 1096 1096 1095 1094 1093 1092 1091 1089 1087 1086 1084 1083 1081 1080 1079 1078 1077 1077 1078 1078 1079 1081 1082 1084 1086 1088 1090 1092 1094 1096 1097 1099 1100 1100 1101 1101 1101 1100 1099 1098 1097 1096 1095 1094 1092 1091 1090 1089 1088 1088 1087 1087 1087 1087 1087 1087 1087 1088 1088 1089 1089 1090 1091 1092 1093 1094 1096 1097 1099 1100 1102 1105 1107 1110 1113 1116 1120 1124 1128 1133 1139 1145 1151 1158 1166 1175 1185 1195 1207 1220 1233 1248 1265 1282 1301 1321 1342 1363 1385 1408 1430 1453 1476 1499 1521 1543 1564 1584 1603 1621 1639 1655 1671 1686 1700 1714 1727 1739 1751 1763 1774 1785 1795 1805 1815 1825 1834 1844 1853 1861 1870 1878 1886 1893 1900 1907 1914 1920 1926 1932 1937 1942 1947 1952 1956 1960 1964 1968 1971 1974 1978 1981 1984 1986 1989 1992 1994 1997 2000 2002 2005 2007 2010 2012 2015 2017 2020 2023 2026 2029 2032 2036 2039 2043 2048 2052 2057 2062 2068 2074 2081 2088 2095 2103 2112 2121 2130 2139 2148 2157 2166 2175 2183 2191 2198 2204 2210 2214 2217 2220 2222 2222 2222 2221 2220 2218 2215 2212 2208 2204 2200 2195 2190 2185 2180 2174 2168 2162 2156 2149 2142 2135 2127 2119 2111 2102 2093 2083 2073 2063 2052 2041 2030 2019 2008 1997 1986 1976 1966 1956 1946 1938 1929 1922 1915 1909
1113 1110 1107 1104 1102 1101 1099 1098 1097 1097 1097 1097 1098 1099 1100 1102 1104 1106 1108 1111 1114 1117 1120 1124 1128 1131 1135 1139 1143 1147 1150 1154 1157 1161 1164 1167 1170 1173 1175 1178 1180 1182 1184 1186 1188 1189 1190 1191 1192 1193 1194 1194 1194 1194 1194 1194 1193 1193 1192 1190 1189 1188 1186 1184 1182 1179 1177 1174 1171 1169 1166 1163 1160 1158 1155 1153 1151 1149 1147 1146 1145 1144 1143 1143 1142 1142 1142 1142 1142 1143 1143 1144 1145 1146 1147 1148 1149 1150 1151 1152 1153 1154 1155 1156 1157 1157 1158 1158 1159 1159 1159 1159 1159 1159 1158 1158 1157 1156 1155 1153 1151 1150 1147 1145 1143 1140 1137 1134 1131 1127 1124 1121 1117 1114 1111 1107 1104 1101 1098 1095 1093 1090 1088 1085 1083 1081 1080 1078 1077 1075 1074 1073 1073 1072 1071 1071 1071 1071 1071 1070 1070 1070 1070 1070 1069 1069 1068 1067 1066 1065 1063 1062 1061 1060 1059 1059 1059 1060 1061 1063 1066 1070 1075 1080 1087 1094 1102 1110 1119 1128 1137 1146 1154 1162 1170 1177 1184 1189 1193 1197 1200 1201 1202 1203 1203 1202 1201 1200 1198 1196 1194 1192 1189 1187 1185 1183 1181 1179 1177 1175 1172 1170 1167 1165 1162 1159 1156 1153 1149 1146 1142 1138 1134 1131 1127 1123 1120 1116 1113 1110 1108 1105 1103 1102 1101 1100 1099 1099 1098 1098 1098 1098 1098 1098 1098 1097 1096 1095 1094 1093 1091 1089 1088 1086 1084 1082 1081 1080 1078 1078 1077 1077 1077 1078 1079 1081 1082 1084 1086 1088 1091 1093 1095 1097 1099 1100 1101 1102 1103 1103 1102 1102 1101 1101 1100 1099 1097 1096 1095 1094 1093 1092 1091 1091 1090 1090 1090 1089 1089 1090 1090 1090 1091 1091 1092 1092 1093 1093 1094 1095 1096 1097 1098 1099 1101 1103 1105 1107 1110 1113 1116 1120 1124 1129 1134 1140 1146 1154 1162 1170 1180 1191 1202 1215 1229 1244 1260 1278 1297 1317 1338 1359 1381 1404 1427 1450 1472 1495 1517 1539 1560 1580 1599 1618 1635 1651 1667 1682 1696 1709 1722 1734 1746 1757 1768 1778 1788 1798 1808 1817 1827 1836 1844 1853 1861 1869 1876 1883 1890 1897 1903 1910 1915 1921 1926 1931 1936 1940 1945 1949 1953 1956 1960 1963 1967 1970 1973 1976 1979 1982 1985 1987 1990 1993 1996 1999 2001 2004 2007 2010 2013 2016 2019 2022 2026 2029 2033 2037 2041 2046 2051 2056 2062 2068 2075 2082 2090 2098 2107 2116 2125 2135 2144 2153 2162 2171 2179 2187 2194 2201 2206 2211 2215 2217 2219 2220 2220 2219 2218 2216 2213 2210 2207 2203 2198 2194 2189 2184 2179 2173 2167 2161 2155 2149 2142 2135 2127 2119 2111 2102 2093 2084 2074 2063 2053 2042 2031 2021 2010 1999 1989 1978 1968 1959 1950 1941 1933 1926 1920 1914
1114 1111 1108 1106 1104 1102 1101 1100 1100 1100 1100 1100 1101 1102 1104 1106 1108 1110 1113 1116 1119 1122 1126 1129 1133 1137 1141 1145 1149 1153 1156 1160 1164 1167 1171 1174 1177 1180 1182 1185 1187 1189 1191 1193 1195 1196 1197 1198 1199 1200 1200 1200 1201 1200 1200 1200 1199 1198 1197 1196 1194 1192 1190 1188 1186 1183 1181 1178 1175 1172 1170 1167 1164 1162 1159 1157 1155 1153 1151 1149 1148 1147 1146 1146 1145 1145 1145 1145 1145 1146 1146 1147 1148 1148 1149 1150 1151 1152 1153 1154 1155 1156 1157 1158 1159 1159 1160 1161 1161 1161 1161 1161 1161 1161 1160 1160 1159 1158 1157 1155 1154 1152 1150 1147 1145 1142 1139 1136 1133 1130 1127 1123 1120 1117 1113 1110 1107 1104 1101 1099 1096 1094 1091 1089 1087 1085 1084 1082 1081 1080 1079 1078 1077 1077 1077 1076 1076 1076 1076 1076 1076 1076 1076 1075 1075 1075 1074 1073 1072 1071 1070 1069 1067 1067 1066 1066 1066 1067 1068 1071 1074 1077 1082 1088 1095 1102 1110 1119 1127 1136 1145 1154 1163 1171 1179 1186 1193 1198 1203 1206 1209 1211 1212 1212 1212 1212 1211 1209 1207 1205 1203 1201 1199 1196 1194 1192 1190 1188 1185 1183 1180 1178 1175 1172 1170 1166 1163 1160 1156 1152 1148 1144 1140 1136 1132 1129 1125 1121 1118 1115 1112 1110 1107 1106 1104 1103 1102 1102 1101 1101 1101 1100 1100 1100 1099 1099 1098 1097 1095 1094 1092 1090 1088 1086 1085 1083 1081 1080 1079 1078 1077 1077 1078 1078 1079 1081 1083 1085 1087 1089 1092 1094 1096 1098 1100 1102 1103 1104 1105 1105 1105 1105 1104 1104 1103 1102 1101 1100 1099 1098 1097 1096 1095 1094 1094 1094 1093 1093 1093 1093 1094 1094 1094 1094 1095 1095 1095 1096 1096 1097 1097 1098 1098 1099 1100 1102 1103 1105 1108 1110 1113 1117 1121 1125 1130 1136 1142 1149 1157 1166 1176 1186 1198 1211 1225 1240 1256 1274 1293 1313 1334 1355 1377 1400 1423 1446 1469 1491 1514 1535 1556 1576 1595 1613 1631 1647 1662 1677 1691 1704 1716 1728 1740 1751 1761 1772 1782 1791 1801 1810 1819 1827 1836 1844 1852 1859 1866 1874 1880 1887 1893 1899 1905 1910 1915 1920 1925 1929 1933 1937 1941 1945 1949 1952 1956 1959 1962 1965 1968 1971 1975 1978 1980 1983 1986 1989 1992 1995 1999 2002 2005 2008 2011 2015 2018 2022 2026 2030 2035 2039 2044 2050 2056 2062 2069 2076 2084 2092 2101 2110 2120 2129 2139 2148 2158 2167 2175 2183 2190 2197 2203 2208 2211 2214 2216 2217 2217 2217 2216 2214 2211 2208 2205 2201 2197 2192 2188 2183 2178 2172 2167 2161 2155 2148 2141 2134 2127 2119 2111 2102 2094 2084 2074 2064 2054 2044 2033 2022 2012 2001 1991 1981 1971 1962 1953 1945 1937 1930 1924 1919
1115 1112 1109 1107 1105 1104 1103 1102 1102 1102 1103 1103 1104 1106 1108 1110 1112 1114 1117 1120 1124 1127 1131 1135 1139 1142 1146 1151 1155 1159 1162 1166 1170 1174 1177 1180 1183 1186 1189 1191 1194 1196 1198 1200 1201 1203 1204 1205 1206 1206 1207 1207 1207 1206 1206 1205 1204 1203 1202 1200 1199 1197 1195 1193 1190 1187 1185 1182 1179 1176 1173 1171 1168 1165 1163 1160 1158 1156 1154 1153 1151 1150 1150 1149 1148 1148 1148 1148 1148 1148 1149 1149 1150 1151 1152 1153 1153 1154 1155 1156 1157 1158 1159 1160 1161 1162 1162 1163 1163 1163 1163 1163 1163 1163 1162 1162 1161 1160 1159 1157 1156 1154 1152 1149 1147 1144 1141 1138 1135 1132 1129 1126 1122 1119 1116 1113 1110 1107 1104 1102 1099 1097 1095 1093 1091 1089 1088 1087 1085 1084 1083 1083 1082 1082 1082 1081 1081 1081 1081 1082 1082 1082 1081 1081 1081 1081 1080 1079 1078 1077 1076 1075 1074 1073 1073 1073 1073 1074 1076 1078 1081 1085 1090 1096 1102 1110 1118 1127 1136 1145 1154 1163 1172 1180 1188 1195 1202 1207 1212 1215 1218 1220 1221 1222 1221 1221 1220 1218 1216 1214 1212 1210 1207 1205 1203 1200 1198 1196 1193 1191 1188 1185 1183 1180 1177 1173 1170 1166 1162 1159 1154 1150 1146 1142 1138 1134 1130 1126 1123 1120 1117 1114 1112 1110 1108 1107 1106 1105 1104 1104 1103 1103 1102 1102 1101 1100 1099 1098 1097 1095 1093 1091 1089 1087 1085 1083 1082 1080 1079 1078 1078 1078 1078 1079 1080 1082 1084 1086 1088 1090 1093 1095 1098 1100 1102 1104 1105 1107 1107 1108 1108 1108 1107 1107 1106 1106 1105 1104 1103 1102 1101 1100 1100 1099 1099 1098 1098 1098 1098 1098 1098 1098 1099 1099 1099 1099 1099 1099 1099 1099 1099 1099 1100 1100 1101 1102 1103 1104 1106 1108 1111 1114 1118 1122 1127 1132 1138 1145 1153 1162 1171 1182 1194 1206 1220 1235 1252 1270 1289 1309 1330 1351 1373 1396 1419 1442 1465 1487 1510 1531 1552 1572 1591 1609 1626 1642 1658 1672 1686 1699 1711 1723 1734 1745 1755 1765 1775 1784 1793 1802 1811 1819 1827 1835 1842 1850 1857 1864 1870 1876 1882 1888 1894 1899 1904 1909 1913 1918 1922 1926 1930 1934 1937 1941 1944 1948 1951 1954 1958 1961 1964 1967 1970 1974 1977 1980 1983 1986 1990 1993 1996 2000 2003 2007 2010 2014 2018 2022 2027 2032 2037 2043 2049 2055 2062 2069 2077 2086 2095 2104 2114 2124 2133 2143 2152 2162 2170 2178 2186 2193 2199 2204 2208 2211 2213 2214 2214 2214 2213 2211 2209 2206 2203 2200 2195 2191 2187 2182 2177 2172 2166 2160 2154 2148 2141 2134 2127 2119 2111 2103 2094 2085 2075 2066 2055 2045 2035 2024 2014 2004 1994 1984 1974 1965 1957 1949 1942 1935 1929 1924
1115 1112 1110 1108 1106 1105 1105 1104 1104 1104 1105 1106 1108 1109 1111 1113 1116 1119 1122 1125 1128 1132 1136 1140 1144 1148 1152 1156 1160 1164 1168 1172 1176 1180 1183 1187 1190 1193 1196 1198 1201 1203 1205 1207 1208 1210 1211 1212 1212 1213 1213 1213 1213 1212 1212 1211 1210 1208 1207 1205 1203 1201 1199 1197 1194 1192 1189 1186 1183 1180 1177 1174 1171 1169 1166 1164 1161 1159 1157 1156 1155 1153 1153 1152 1151 1151 1151 1151 1151 1151 1151 1152 1152 1153 1154 1155 1156 1157 1158 1159 1159 1160 1161 1162 1163 1164 1164 1165 1165 1165 1166 1166 1165 1165 1165 1164 1163 1162 1161 1159 1158 1156 1154 1152 1149 1146 1144 1141 1138 1135 1131 1128 1125 1122 1119 1116 1113 1110 1107 1105 1103 1100 1098 1097 1095 1093 1092 1091 1090 1089 1088 1088 1087 1087 1087 1087 1087 1087 1087 1087 1087 1087 1087 1087 1087 1087 1086 1085 1084 1083 1082 1081 1080 1080 1079 1079 1080 1081 1083 1085 1088 1092 1097 1103 1110 1118 1126 1135 1144 1153 1162 1171 1180 1188 1196 1204 1210 1216 1220 1224 1227 1229 1230 1230 1230 1229 1228 1226 1225 1222 1220 1218 1215 1213 1210 1208 1205 1203 1200 1198 1195 1192 1189 1186 1183 1180 1176 1172 1168 1164 1160 1156 1152 1147 1143 1139 1135 1131 1128 1124 1121 1118 1116 1114 1112 1111 1110 1109 1108 1107 1106 1106 1105 1104 1103 1102 1101 1100 1098 1096 1094 1092 1090 1088 1086 1084 1083 1081 1080 1079 1078 1078 1079 1080 1081 1083 1085 1087 1089 1092 1094 1097 1100 1102 1104 1106 1108 1109 1110 1111 1111 1111 1111 1111 1110 1110 1109 1108 1107 1107 1106 1105 1105 1104 1104 1104 1104 1104 1104 1104 1104 1104 1104 1104 1104 1104 1103 1103 1103 1102 1102 1102 1102 1101 1102 1102 1103 1104 1105 1107 1109 1112 1115 1119 1123 1129 1135 1141 1149 1158 1167 1178 1189 1202 1216 1231 1247 1265 1284 1304 1325 1347 1369 1392 1415 1438 1461 1483 1505 1527 1548 1568 1587 1605 1622 1638 1653 1667 1680 1693 1705 1717 1728 1738 1748 1758 1767 1776 1785 1794 1802 1810 1818 1826 1833 1840 1847 1854 1860 1866 1872 1877 1883 1888 1893 1897 1902 1906 1910 1915 1918 1922 1926 1929 1933 1936 1940 1943 1947 1950 1953 1957 1960 1963 1967 1970 1973 1977 1980 1984 1987 1991 1994 1998 2002 2006 2010 2014 2019 2024 2029 2035 2041 2048 2055 2062 2070 2079 2088 2098 2108 2117 2127 2137 2147 2156 2165 2173 2181 2188 2194 2200 2204 2207 2209 2211 2211 2211 2211 2209 2207 2204 2201 2198 2194 2190 2186 2181 2176 2171 2166 2160 2154 2148 2141 2135 2127 2120 2112 2104 2095 2086 2077 2067 2057 2047 2037 2026 2016 2006 1996 1987 1977 1969 1960 1953 1946 1939 1934 1929
1115 1113 1110 1109 1107 1107 1106 1106 1106 1107 1108 1109 1111 1112 1115 1117 1120 1123 1126 1130 1133 1137 1141 1145 1149 1153 1158 1162 1166 1170 1174 1178 1182 1186 1190 1193 1196 1199 1202 1205 1207 1209 1211 1213 1215 1216 1217 1218 1219 1219 1219 1219 1219 1218 1217 1216 1215 1214 1212 1210 1208 1206 1204 1201 1198 1196 1193 1190 1187 1184 1181 1178 1175 1172 1169 1167 1165 1163 1161 1159 1158 1156 1155 1155 1154 1154 1153 1153 1153 1153 1154 1154 1155 1155 1156 1157 1158 1159 1160 1161 1162 1163 1163 1164 1165 1166 1166 1167 1167 1168 1168 1168 1167 1167 1167 1166 1165 1164 1163 1161 1160 1158 1156 1154 1151 1149 1146 1143 1140 1137 1134 1131 1127 1124 1121 1118 1116 1113 1110 1108 1106 1104 1102 1100 1099 1098 1096 1095 1094 1094 1093 1093 1092 1092 1092 1092 1092 1092 1092 1093 1093 1093 1093 1093 1093 1092 1092 1091 1091 1090 1089 1088 1087 1086 1086 1086 1087 1088 1090 1092 1095 1099 1105 1111 1118 1125 1134 1142 1151 1161 1170 1179 1188 1197 1205 1212 1218 1224 1229 1232 1235 1237 1238 1238 1238 1237 1236 1234 1233 1230 1228 1225 1223 1220 1218 1215 1213 1210 1207 1204 1202 1199 1196 1192 1189 1186 1182 1178 1174 1170 1166 1161 1157 1153 1148 1144 1140 1136 1132 1129 1126 1123 1120 1118 1116 1115 1113 1112 1111 1110 1109 1108 1108 1107 1106 1105 1103 1102 1100 1098 1096 1094 1092 1089 1087 1085 1084 1082 1081 1080 1080 1080 1080 1081 1082 1084 1086 1088 1091 1094 1096 1099 1102 1104 1107 1109 1111 1112 1113 1114 1115 1115 1115 1115 1115 1114 1114 1113 1112 1112 1111 1111 1110 1110 1110 1110 1110 1110 1110 1110 1110 1110 1110 1109 1109 1109 1108 1108 1107 1106 1105 1105 1104 1104 1103 1103 1103 1104 1105 1106 1108 1110 1113 1116 1121 1126 1131 1138 1145 1154 1163 1173 1185 1198 1212 1227 1243 1261 1280 1300 1321 1343 1365 1388 1410 1433 1456 1479 1501 1523 1544 1563 1582 1600 1617 1633 1647 1662 1675 1687 1699 1711 1721 1731 1741 1751 1760 1769 1777 1786 1794 1801 1809 1816 1823 1830 1837 1843 1849 1855 1861 1866 1872 1877 1881 1886 1891 1895 1899 1903 1907 1911 1914 1918 1922 1925 1929 1932 1935 1939 1942 1946 1949 1953 1956 1960 1963 1967 1970 1974 1977 1981 1985 1989 1993 1997 2001 2006 2010 2016 2021 2027 2033 2040 2047 2055 2063 2072 2081 2091 2101 2111 2121 2131 2141 2150 2160 2168 2176 2183 2190 2195 2200 2203 2206 2207 2208 2208 2208 2207 2205 2202 2200 2196 2193 2189 2185 2180 2175 2171 2165 2160 2154 2148 2142 2135 2128 2121 2113 2105 2096 2087 2078 2069 2059 2049 2039 2029 2019 2009 1999 1990 1981 1972 1964 1957 1950 1944 1939 1934
1115 1113 1111 1109 1108 1108 1107 1107 1108 1109 1110 1112 1113 1116 1118 1121 1124 1127 1130 1134 1138 1142 1146 1150 1154 1159 1163 1167 1172 1176 1180 1184 1188 1192 1196 1199 1202 1206 1208 1211 1214 1216 1218 1220 1221 1223 1224 1225 1225 1225 1225 1225 1225 1224 1223 1222 1220 1219 1217 1215 1213 1210 1208 1205 1202 1199 1196 1193 1190 1187 1184 1181 1178 1175 1173 1170 1168 1166 1164 1162 1161 1159 1158 1157 1157 1156 1156 1156 1156 1156 1156 1156 1157 1158 1158 1159 1160 1161 1162 1163 1164 1165 1166 1166 1167 1168 1169 1169 1169 1170 1170 1170 1170 1169 1169 1168 1167 1166 1165 1163 1162 1160 1158 1156 1153 1151 1148 1145 1142 1139 1136 1133 1130 1127 1124 1121 1118 1116 1114 1111 1109 1107 1106 1104 1103 1102 1101 1100 1099 1098 1098 1098 1097 1097 1097 1097 1098 1098 1098 1098 1099 1099 1099 1099 1099 1098 1098 1097 1097 1096 1095 1094 1093 1093 1093 1093 1094 1095 1097 1099 1102 1107 1112 1118 1125 1133 1141 1150 1159 1168 1178 1187 1196 1204 1212 1220 1226 1232 1236 1240 1243 1245 1246 1246 1246 1245 1244 1242 1240 1238 1235 1233 1230 1227 1225 1222 1219 1216 1214 1211 1208 1205 1201 1198 1195 1191 1187 1183 1179 1175 1171 1166 1162 1158 1153 1149 1145 1141 1137 1134 1130 1127 1125 1122 1120 1119 1117 1116 1115 1114 1113 1112 1111 1110 1108 1107 1106 1104 1102 1100 1098 1096 1093 1091 1089 1087 1085 1084 1082 1082 1081 1081 1082 1083 1084 1086 1088 1090 1093 1096 1098 1101 1104 1107 1109 1112 1114 1115 1117 1118 1118 1119 1119 1119 1119 1119 1119 1118 1118 1117 1117 1117 1117 1116 1116 1116 1116 1116 1116 1116 1116 1116 1116 1116 1115 1115 1114 1113 1112 1111 1109 1108 1107 1106 1105 1105 1104 1104 1105 1105 1107 1109 1111 1114 1118 1123 1128 1134 1142 1150 1159 1169 1181 1193 1207 1222 1239 1256 1275 1295 1316 1338 1360 1383 1406 1429 1452 1474 1496 1518 1539 1559 1577 1595 1612 1627 1642 1656 1669 1681 1693 1704 1714 1724 1734 1743 1752 1761 1769 1777 1785 1792 1800 1807 1814 1820 1827 1833 1839 1845 1850 1855 1861 1865 1870 1875 1879 1883 1887 1891 1895 1899 1903 1906 1910 1914 1917 1921 1924 1928 1931 1935 1938 1942 1946 1949 1953 1956 1960 1964 1968 1971 1975 1979 1983 1988 1992 1997 2002 2007 2012 2018 2025 2032 2039 2047 2055 2064 2074 2084 2094 2104 2114 2125 2135 2144 2154 2163 2171 2178 2185 2191 2195 2199 2202 2204 2205 2205 2205 2204 2203 2200 2198 2195 2191 2188 2184 2180 2175 2170 2165 2160 2155 2149 2142 2136 2129 2122 2114 2106 2098 2089 2080 2070 2061 2051 2041 2031 2021 2012 2002 1993 1984 1976 1968 1961 1955 1949 1944 1940
1115 1113 1111 1110 1109 1109 1109 1109 1110 1111 1112 1114 1116 1119 1121 1124 1127 1131 1134 1138 1142 1146 1151 1155 1159 1164 1168 1173 1177 1182 1186 1190 1194 1198 1202 1205 1209 1212 1215 1218 1220 1222 1225 1226 1228 1229 1230 1231 1231 1232 1231 1231 1230 1230 1228 1227 1225 1224 1222 1219 1217 1215 1212 1209 1206 1203 1200 1197 1194 1191 1188 1185 1182 1179 1176 1173 1171 1169 1167 1165 1163 1162 1161 1160 1159 1159 1158 1158 1158 1158 1158 1159 1159 1160 1160 1161 1162 1163 1164 1165 1166 1167 1168 1168 1169 1170 1171 1171 1172 1172 1172 1172 1172 1171 1171 1170 1169 1168 1167 1166 1164 1162 1160 1158 1155 1153 1150 1147 1144 1141 1138 1135 1132 1129 1127 1124 1121 1119 1117 1115 1113 1111 1110 1108 1107 1106 1105 1104 1104 1103 1103 1103 1103 1103 1103 1103 1103 1104 1104 1104 1104 1105 1105 1105 1105 1104 1104 1104 1103 1102 1101 1100 1100 1099 1099 1100 1100 1102 1104 1106 1110 1114 1119 1125 1133 1140 1149 1158 1167 1176 1185 1194 1203 1212 1220 1227 1234 1239 1244 1248 1250 1252 1253 1253 1253 1252 1251 1249 1247 1245 1242 1239 1237 1234 1231 1228 1225 1223 1220 1216 1213 1210 1207 1203 1200 1196 1192 1188 1184 1180 1176 1171 1167 1162 1158 1154 1150 1146 1142 1138 1135 1132 1129 1127 1125 1123 1121 1120 1118 1117 1116 1115 1114 1113 1111 1110 1108 1106 1104 1102 1100 1098 1095 1093 1091 1089 1087 1085 1084 1083 1083 1083 1083 1084 1086 1088 1090 1092 1095 1098 1101 1103 1106 1109 1112 1114 1117 1118 1120 1121 1122 1123 1123 1124 1124 1124 1124 1124 1123 1123 1123 1123 1123 1123 1123 1123 1123 1123 1123 1123 1123 1123 1123 1122 1122 1121 1120 1119 1117 1116 1114 1112 1111 1109 1108 1106 1106 1105 1105 1105 1106 1107 1110 1112 1116 1120 1125 1131 1138 1146 1155 1166 1177 1189 1203 1218 1234 1252 1271 1291 1312 1333 1356 1378 1401 1424 1447 1469 1491 1513 1534 1553 1572 1590 1606 1621 1636 1650 1663 1675 1686 1697 1707 1717 1726 1735 1744 1752 1760 1768 1776 1783 1790 1797 1804 1810 1816 1822 1828 1834 1839 1844 1849 1854 1859 1863 1867 1872 1876 1880 1883 1887 1891 1895 1898 1902 1906 1909 1913 1916 1920 1924 1927 1931 1935 1938 1942 1946 1950 1954 1958 1961 1965 1970 1974 1978 1983 1987 1992 1998 2004 2010 2016 2023 2031 2039 2047 2057 2066 2076 2087 2097 2108 2118 2128 2138 2148 2157 2165 2173 2180 2186 2191 2195 2198 2200 2202 2202 2202 2202 2200 2199 2196 2194 2190 2187 2183 2179 2175 2170 2166 2160 2155 2149 2143 2137 2130 2123 2116 2108 2100 2091 2082 2073 2063 2053 2044 2034 2024 2015 2005 1996 1988 1980 1972 1965 1959 1954 1949 1945
1115 1113 1111 1110 1110 1109 1110 1110 1111 1113 1114 1116 1119 1121 1124 1127 1131 1134 1138 1142 1146 1151 1155 1160 1164 1169 1173 1178 1183 1187 1192 1196 1200 1204 1208 1211 1215 1218 1221 1224 1227 1229 1231 1233 1234 1236 1237 1237 1238 1238 1238 1237 1236 1235 1234 1232 1231 1229 1226 1224 1222 1219 1216 1213 1210 1207 1204 1201 1198 1194 1191 1188 1185 1182 1179 1176 1174 1172 1170 1168 1166 1165 1164 1162 1162 1161 1161 1160 1160 1160 1160 1161 1161 1162 1162 1163 1164 1165 1166 1167 1168 1169 1170 1171 1171 1172 1173 1173 1174 1174 1174 1174 1174 1173 1173 1172 1171 1170 1169 1168 1166 1164 1162 1160 1157 1155 1152 1149 1147 1144 1141 1138 1135 1132 1129 1127 1124 1122 1120 1118 1116 1115 1113 1112 1111 1110 1110 1109 1109 1108 1108 1108 1108 1108 1108 1109 1109 1109 1110 1110 1110 1110 1111 1111 1111 1110 1110 1110 1109 1108 1108 1107 1106 1106 1106 1106 1107 1109 1111 1113 1117 1121 1127 1133 1140 1148 1156 1165 1174 1183 1193 1202 1211 1219 1227 1235 1241 1247 1251 1255 1257 1259 1260 1260 1260 1259 1258 1256 1254 1251 1249 1246 1243 1240 1237 1234 1231 1228 1225 1222 1219 1215 1212 1208 1205 1201 1197 1193 1189 1184 1180 1176 1171 1167 1163 1158 1154 1150 1147 1143 1140 1137 1134 1131 1129 1127 1125 1124 1122 1121 1120 1118 1117 1116 1114 1113 1111 1109 1107 1105 1102 1100 1098 1095 1093 1091 1089 1088 1086 1086 1085 1085 1086 1087 1088 1090 1092 1094 1097 1100 1103 1106 1109 1112 1115 1117 1119 1121 1123 1125 1126 1127 1127 1128 1128 1129 1129 1129 1129 1129 1129 1129 1129 1129 1130 1130 1130 1130 1130 1130 1130 1130 1130 1129 1128 1127 1126 1125 1123 1121 1119 1117 1114 1112 1110 1109 1107 1106 1106 1105 1106 1107 1108 1111 1114 1118 1123 1128 1135 1143 1152 1162 1173 1185 1199 1213 1230 1247 1266 1286 1307 1328 1351 1373 1396 1419 1442 1464 1486 1508 1528 1548 1566 1584 1600 1615 1630 1643 1656 1668 1679 1690 1700 1709 1718 1727 1735 1743 1751 1759 1766 1773 1780 1787 1793 1800 1806 1812 1817 1823 1828 1833 1838 1842 1847 1851 1856 1860 1864 1868 1872 1875 1879 1883 1887 1890 1894 1898 1901 1905 1909 1912 1916 1920 1924 1928 1932 1935 1939 1943 1947 1951 1956 1960 1964 1969 1973 1978 1983 1989 1995 2001 2008 2015 2022 2031 2039 2049 2059 2069 2079 2090 2101 2111 2122 2132 2142 2151 2160 2168 2175 2181 2187 2191 2194 2197 2198 2199 2200 2199 2198 2197 2195 2192 2189 2186 2183 2179 2175 2171 2166 2161 2156 2150 2144 2138 2132 2125 2117 2110 2102 2093 2084 2075 2066 2056 2046 2037 2027 2018 2009 2000 1992 1984 1976 1970 1964 1959 1954 1951
1114 1113 1111 1111 1110 1110 1111 1112 1113 1114 1116 1119 1121 1124 1127 1131 1134 1138 1142 1146 1151 1155 1160 1164 1169 1174 1179 1183 1188 1193 1197 1202 1206 1210 1214 1218 1221 1224 1228 1230 1233 1235 1237 1239 1241 1242 1243 1244 1244 1244 1243 1243 1242 1241 1239 1238 1236 1234 1231 1229 1226 1223 1220 1217 1214 1211 1208 1204 1201 1198 1195 1191 1188 1185 1182 1180 1177 1175 1173 1171 1169 1167 1166 1165 1164 1163 1163 1162 1162 1162 1162 1163 1163 1164 1164 1165 1166 1167 1168 1169 1170 1171 1172 1173 1173 1174 1175 1175 1176 1176 1176 1176 1176 1176 1175 1174 1173 1172 1171 1170 1168 1166 1164 1162 1160 1157 1154 1152 1149 1146 1143 1140 1137 1135 1132 1130 1127 1125 1123 1121 1120 1118 1117 1116 1115 1115 1114 1114 1114 1113 1113 1113 1114 1114 1114 1114 1115 1115 1115 1116 1116 1116 1116 1117 1117 1116 1116 1116 1115 1115 1114 1113 1113 1113 1113 1113 1114 1116 1118 1121 1124 1129 1134 1140 1147 1155 1164 1173 1182 1191 1200 1209 1218 1227 1235 1242 1248 1254 1258 1262 1264 1266 1267 1267 1267 1266 1264 1263 1260 1258 1255 1252 1249 1246 1243 1240 1237 1234 1230 1227 1224 1220 1217 1213 1209 1205 1201 1197 1193 1189 1184 1180 1176 1171 1167 1163 1159 1155 1151 1148 1144 1141 1138 1136 1134 1132 1130 1128 1126 1125 1123 1122 1121 1119 1118 1116 1114 1112 1110 1108 1105 1103 1100 1098 1096 1094 1092 1090 1089 1088 1088 1087 1088 1089 1090 1092 1094 1097 1100 1102 1105 1108 1111 1114 1117 1120 1122 1124 1126 1128 1129 1130 1131 1132 1133 1133 1134 1134 1134 1135 1135 1135 1135 1136 1136 1137 1137 1137 1137 1137 1137 1137 1137 1136 1135 1134 1132 1131 1129 1126 1124 1121 1118 1116 1113 1111 1109 1108 1107 1106 1106 1106 1107 1109 1112 1116 1120 1126 1132 1140 1148 1158 1169 1181 1194 1209 1225 1242 1261 1281 1302 1323 1345 1368 1391 1414 1436 1459 1481 1502 1522 1542 1560 1578 1594 1609 1623 1636 1649 1660 1672 1682 1692 1701 1710 1718 1726 1734 1742 1749 1757 1763 1770 1777 1783 1789 1795 1800 1806 1811 1816 1821 1826 1831 1835 1840 1844 1848 1852 1856 1860 1864 1867 1871 1875 1879 1882 1886 1890 1894 1897 1901 1905 1909 1913 1917 1921 1925 1929 1933 1937 1941 1946 1950 1954 1959 1964 1969 1974 1980 1986 1992 1999 2006 2014 2022 2031 2041 2051 2061 2072 2083 2094 2105 2115 2126 2136 2145 2154 2163 2170 2177 2182 2187 2190 2193 2195 2196 2197 2197 2196 2195 2193 2191 2189 2186 2182 2179 2175 2171 2167 2162 2157 2152 2146 2140 2133 2127 2120 2112 2104 2096 2087 2078 2068 2059 2049 2040 2031 2021 2012 2004 1996 1988 1981 1974 1969 1964 1960 1957
1114 1112 1111 1111 1111 1111 1112 1113 1114 1116 1118 1121 1124 1127 1130 1134 1137 1142 1146 1150 1155 1159 1164 1169 1174 1179 1184 1189 1193 1198 1203 1207 1212 1216 1220 1224 1227 1231 1234 1237 1239 1242 1244 1246 1247 1248 1249 1250 1250 1250 1249 1249 1248 1246 1245 1243 1241 1238 1236 1233 1231 1228 1225 1221 1218 1215 1211 1208 1205 1201 1198 1195 1192 1188 1186 1183 1180 1178 1175 1173 1172 1170 1169 1168 1167 1166 1165 1165 1164 1164 1164 1164 1165 1165 1166 1167 1168 1169 1170 1171 1172 1173 1174 1175 1176 1176 1177 1178 1178 1178 1178 1178 1178 1178 1177 1177 1176 1175 1173 1172 1170 1168 1166 1164 1162 1159 1157 1154 1151 1148 1146 1143 1140 1137 1135 1132 1130 1128 1126 1125 1124 1122 1121 1121 1120 1119 1119 1119 1119 1119 1119 1119 1119 1119 1120 1120 1121 1121 1121 1122 1122 1122 1122 1123 1123 1123 1122 1122 1121 1121 1120 1120 1120 1119 1120 1120 1121 1123 1125 1128 1132 1136 1142 1148 1155 1163 1171 1180 1189 1198 1208 1217 1226 1234 1242 1249 1256 1261 1265 1269 1271 1273 1274 1274 1273 1272 1271 1269 1266 1264 1261 1258 1255 1252 1248 1245 1242 1239 1235 1232 1228 1225 1221 1217 1213 1209 1205 1201 1197 1193 1189 1184 1180 1176 1171 1167 1163 1159 1156 1152 1149 1146 1143 1140 1138 1136 1134 1132 1131 1129 1127 1126 1124 1123 1121 1119 1117 1115 1113 1111 1108 1106 1103 1101 1099 1097 1095 1093 1092 1091 1090 1090 1091 1092 1093 1095 1097 1099 1102 1105 1108 1111 1114 1117 1120 1122 1125 1127 1129 1131 1133 1134 1135 1136 1137 1138 1138 1139 1139 1140 1140 1141 1141 1142 1143 1143 1144 1144 1144 1145 1144 1144 1144 1143 1142 1141 1139 1137 1134 1132 1129 1126 1123 1120 1117 1114 1112 1109 1108 1107 1106 1106 1107 1108 1111 1114 1118 1123 1129 1137 1145 1154 1165 1177 1190 1204 1220 1238 1256 1276 1297 1318 1340 1362 1385 1408 1430 1453 1475 1496 1516 1536 1554 1571 1587 1602 1616 1629 1641 1653 1663 1674 1683 1692 1701 1709 1717 1725 1732 1739 1746 1753 1760 1766 1772 1778 1784 1789 1794 1800 1805 1810 1814 1819 1823 1828 1832 1836 1840 1844 1848 1852 1856 1859 1863 1867 1871 1875 1878 1882 1886 1890 1894 1898 1902 1906 1910 1914 1918 1923 1927 1931 1936 1940 1945 1949 1954 1959 1965 1971 1977 1983 1990 1998 2006 2014 2023 2033 2043 2054 2065 2076 2087 2098 2109 2119 2130 2140 2149 2157 2165 2172 2178 2182 2186 2190 2192 2194 2195 2195 2194 2194 2192 2190 2188 2185 2183 2179 2176 2172 2168 2163 2158 2153 2148 2142 2136 2129 2122 2114 2107 2098 2090 2081 2072 2062 2053 2043 2034 2025 2016 2008 2000 1992 1985 1979 1974 1969 1966 1963
1113 1112 1111 1111 1111 1111 1112 1114 1115 1117 1120 1123 1126 1129 1133 1136 1141 1145 1149 1154 1159 1164 1168 1174 1179 1184 1189 1194 1199 1204 1208 1213 1218 1222 1226 1230 1234 1237 1240 1243 1246 1248 1250 1252 1254 1255 1256 1256 1256 1256 1255 1254 1253 1252 1250 1248 1246 1243 1241 1238 1235 1232 1229 1225 1222 1219 1215 1212 1208 1205 1201 1198 1195 1192 1189 1186 1183 1181 1178 1176 1174 1173 1171 1170 1169 1168 1167 1167 1166 1166 1166 1166 1167 1167 1168 1169 1169 1170 1171 1173 1174 1175 1176 1177 1178 1178 1179 1180 1180 1181 1181 1181 1180 1180 1179 1179 1178 1177 1176 1174 1172 1171 1169 1166 1164 1162 1159 1156 1154 1151 1148 1145 1143 1140 1138 1136 1133 1132 1130 1128 1127 1126 1125 1125 1124 1124 1124 1124 1124 1124 1124 1125 1125 1125 1126 1126 1127 1127 1127 1128 1128 1128 1129 1129 1129 1129 1129 1128 1128 1127 1127 1127 1126 1126 1127 1127 1129 1130 1133 1135 1139 1144 1149 1156 1163 1171 1179 1188 1197 1206 1215 1224 1233 1241 1249 1256 1263 1268 1272 1275 1278 1279 1280 1280 1280 1279 1277 1275 1272 1270 1267 1263 1260 1257 1254 1250 1247 1243 1240 1236 1232 1229 1225 1221 1217 1213 1209 1205 1201 1197 1192 1188 1184 1180 1176 1172 1168 1164 1160 1157 1153 1150 1148 1145 1143 1141 1139 1137 1135 1133 1132 1130 1128 1127 1125 1123 1121 1119 1116 1114 1112 1109 1107 1104 1102 1100 1098 1096 1095 1094 1093 1093 1094 1095 1096 1098 1100 1102 1105 1107 1110 1113 1116 1119 1122 1125 1128 1130 1132 1134 1136 1137 1138 1140 1141 1142 1143 1143 1144 1145 1146 1146 1147 1148 1149 1149 1150 1151 1151 1151 1151 1151 1151 1150 1149 1147 1145 1143 1140 1137 1134 1130 1127 1123 1120 1117 1114 1111 1109 1108 1106 1106 1106 1107 1109 1112 1116 1121 1127 1133 1141 1151 1161 1173 1186 1200 1216 1233 1251 1271 1291 1312 1334 1357 1379 1402 1424 1447 1468 1489 1510 1529 1547 1564 1580 1594 1608 1621 1633 1644 1655 1665 1674 1683 1692 1700 1707 1715 1722 1729 1736 1742 1749 1755 1761 1766 1772 1777 1783 1788 1793 1798 1802 1807 1811 1815 1820 1824 1828 1832 1836 1840 1844 1848 1851 1855 1859 1863 1867 1871 1875 1879 1883 1887 1891 1895 1900 1904 1908 1912 1917 1921 1926 1930 1935 1940 1945 1950 1956 1962 1968 1975 1982 1990 1998 2006 2016 2026 2036 2047 2058 2069 2080 2091 2102 2113 2124 2134 2143 2152 2160 2167 2173 2178 2183 2186 2189 2191 2192 2193 2193 2192 2191 2190 2188 2185 2183 2180 2177 2173 2169 2165 2160 2155 2150 2144 2138 2131 2125 2117 2110 2101 2093 2084 2075 2066 2056 2047 2038 2029 2020 2012 2004 1997 1990 1984 1979 1975 1972 1969
1113 1112 1111 1111 1111 1112 1113 1115 1116 1119 1121 1124 1128 1131 1135 1139 1143 1148 1153 1157 1162 1167 1173 1178 1183 1188 1194 1199 1204 1209 1214 1219 1223 1228 1232 1236 1240 1243 1247 1250 1252 1255 1257 1259 1260 1261 1262 1262 1262 1262 1261 1260 1259 1257 1255 1253 1251 1248 1245 1242 1239 1236 1233 1229 1226 1222 1219 1215 1212 1208 1205 1202 1198 1195 1192 1189 1186 1184 1181 1179 1177 1175 1174 1173 1171 1170 1170 1169 1168 1168 1168 1168 1169 1169 1170 1170 1171 1172 1173 1174 1176 1177 1178 1179 1180 1181 1181 1182 1182 1183 1183 1183 1183 1182 1182 1181 1180 1179 1178 1176 1175 1173 1171 1169 1167 1164 1161 1159 1156 1153 1151 1148 1146 1143 1141 1139 1137 1135 1134 1132 1131 1130 1130 1129 1129 1129 1129 1129 1129 1129 1130 1130 1131 1131 1132 1132 1133 1133 1133 1134 1134 1135 1135 1135 1135 1135 1135 1135 1134 1134 1134 1133 1133 1133 1134 1135 1136 1138 1140 1143 1147 1152 1157 1163 1171 1178 1187 1196 1205 1214 1223 1232 1240 1249 1256 1263 1270 1275 1279 1282 1284 1286 1287 1287 1286 1285 1283 1281 1278 1275 1272 1269 1265 1262 1258 1255 1251 1248 1244 1240 1237 1233 1229 1225 1221 1217 1213 1209 1205 1200 1196 1192 1188 1184 1180 1176 1172 1168 1165 1161 1158 1155 1152 1150 1147 1145 1143 1141 1139 1138 1136 1134 1132 1131 1129 1127 1125 1123 1120 1118 1115 1113 1110 1108 1106 1103 1102 1100 1099 1098 1097 1097 1097 1098 1099 1101 1103 1105 1107 1110 1113 1116 1119 1121 1124 1127 1130 1132 1134 1136 1138 1140 1141 1143 1144 1145 1146 1148 1149 1150 1151 1151 1152 1153 1154 1155 1156 1157 1157 1158 1158 1157 1157 1156 1155 1153 1151 1149 1146 1142 1139 1135 1131 1127 1123 1120 1116 1113 1111 1109 1107 1106 1106 1107 1108 1111 1114 1119 1124 1131 1138 1147 1157 1169 1181 1195 1211 1228 1246 1265 1286 1307 1328 1351 1373 1396 1418 1440 1462 1482 1502 1522 1539 1556 1572 1586 1600 1613 1624 1635 1646 1656 1665 1673 1682 1689 1697 1704 1711 1718 1725 1731 1737 1743 1749 1755 1760 1765 1771 1776 1781 1785 1790 1794 1799 1803 1807 1812 1816 1820 1824 1828 1832 1836 1840 1844 1848 1852 1856 1860 1864 1868 1872 1876 1881 1885 1889 1894 1898 1902 1907 1912 1916 1921 1926 1931 1936 1942 1947 1953 1960 1967 1974 1982 1990 1999 2008 2018 2029 2040 2051 2062 2074 2085 2096 2107 2118 2128 2138 2147 2155 2162 2169 2174 2179 2183 2186 2188 2190 2191 2191 2191 2191 2189 2188 2186 2183 2181 2178 2174 2171 2167 2162 2157 2152 2147 2141 2134 2128 2120 2113 2105 2096 2088 2079 2070 2060 2051 2042 2033 2025 2017 2009 2002 1995 1990 1985 1981 1978 1975
1113 1112 1111 1111 1111 1112 1114 1115 1117 1120 1123 1126 1129 1133 1137 1142 1146 1151 1156 1161 1166 1171 1177 1182 1188 1193 1199 1204 1209 1215 1220 1225 1229 1234 1238 1242 1246 1250 1253 1256 1259 1261 1263 1265 1266 1268 1268 1269 1268 1268 1267 1266 1264 1263 1261 1258 1256 1253 1250 1247 1244 1240 1237 1234 1230 1226 1223 1219 1216 1212 1209 1205 1202 1199 1195 1192 1190 1187 1184 1182 1180 1178 1177 1175 1174 1173 1172 1171 1171 1170 1170 1170 1170 1171 1171 1172 1173 1174 1175 1176 1177 1179 1180 1181 1182 1183 1184 1184 1185 1185 1185 1185 1185 1185 1184 1183 1183 1181 1180 1179 1177 1175 1173 1171 1169 1167 1164 1162 1159 1156 1154 1151 1149 1146 1144 1142 1140 1139 1137 1136 1135 1135 1134 1134 1134 1134 1134 1134 1135 1135 1136 1136 1137 1137 1138 1138 1139 1139 1140 1140 1141 1141 1141 1141 1141 1141 1141 1141 1141 1141 1140 1140 1140 1140 1141 1142 1143 1145 1148 1151 1155 1159 1165 1171 1179 1186 1195 1203 1212 1221 1230 1239 1248 1256 1264 1270 1276 1282 1286 1289 1291 1292 1293 1293 1292 1290 1289 1286 1284 1281 1277 1274 1270 1267 1263 1259 1256 1252 1248 1244 1240 1237 1233 1229 1224 1220 1216 1212 1208 1204 1200 1196 1192 1187 1184 1180 1176 1172 1169 1166 1162 1159 1157 1154 1152 1150 1148 1146 1144 1142 1140 1138 1137 1135 1133 1131 1129 1127 1124 1122 1119 1117 1114 1112 1110 1108 1106 1104 1103 1101 1101 1100 1101 1101 1102 1104 1106 1108 1110 1112 1115 1118 1121 1123 1126 1129 1131 1134 1136 1138 1140 1142 1144 1145 1147 1148 1150 1151 1152 1153 1155 1156 1157 1158 1159 1161 1162 1162 1163 1163 1164 1163 1163 1162 1161 1159 1157 1154 1151 1147 1143 1139 1135 1131 1127 1123 1119 1115 1112 1110 1108 1106 1106 1106 1107 1109 1112 1116 1122 1128 1135 1144 1153 1164 1177 1191 1206 1222 1241 1260 1280 1301 1322 1344 1367 1389 1411 1433 1454 1475 1495 1514 1531 1548 1563 1578 1591 1604 1615 1626 1636 1646 1655 1663 1671 1679 1686 1693 1700 1707 1713 1719 1725 1731 1737 1742 1748 1753 1758 1763 1768 1773 1777 1782 1786 1791 1795 1799 1803 1808 1812 1816 1820 1824 1828 1832 1836 1840 1844 1849 1853 1857 1861 1866 1870 1875 1879 1884 1888 1893 1897 1902 1907 1912 1917 1922 1928 1933 1939 1945 1952 1959 1966 1974 1983 1992 2001 2011 2022 2033 2044 2056 2067 2079 2090 2101 2112 2123 2133 2142 2150 2158 2165 2171 2176 2180 2183 2186 2188 2189 2190 2190 2190 2189 2188 2186 2184 2182 2179 2176 2173 2169 2165 2160 2155 2150 2144 2138 2131 2124 2116 2108 2100 2092 2083 2074 2065 2056 2047 2038 2030 2022 2014 2007 2001 1995 1991 1987 1984 1982
1112 1111 1111 1111 1112 1113 1114 1116 1118 1121 1124 1127 1131 1135 1139 1144 1149 1154 1159 1164 1169 1175 1181 1186 1192 1198 1203 1209 1215 1220 1225 1230 1235 1240 1244 1249 1253 1256 1260 1263 1265 1268 1270 1272 1273 1274 1275 1275 1275 1274 1273 1272 1270 1268 1266 1264 1261 1258 1255 1252 1248 1245 1241 1238 1234 1230 1227 1223 1219 1216 1212 1209 1205 1202 1199 1196 1193 1190 1188 1185 1183 1181 1179 1178 1176 1175 1174 1173 1173 1172 1172 1172 1172 1173 1173 1174 1175 1176 1177 1178 1179 1180 1182 1183 1184 1185 1186 1186 1187 1187 1187 1187 1187 1187 1186 1186 1185 1184 1183 1181 1180 1178 1176 1174 1172 1169 1167 1164 1162 1159 1157 1154 1152 1150 1147 1146 1144 1142 1141 1140 1140 1139 1139 1139 1139 1139 1139 1140 1140 1141 1142 1142 1143 1143 1144 1145 1145 1146 1146 1146 1147 1147 1147 1148 1148 1148 1148 1148 1147 1147 1147 1147 1147 1148 1148 1149 1151 1153 1156 1159 1163 1168 1173 1180 1187 1195 1203 1211 1220 1229 1238 1247 1255 1263 1271 1278 1284 1288 1292 1295 1297 1299 1299 1299 1298 1296 1294 1292 1289 1286 1282 1279 1275 1271 1268 1264 1260 1256 1252 1248 1244 1240 1236 1232 1228 1224 1220 1215 1211 1207 1203 1199 1195 1191 1187 1184 1180 1176 1173 1170 1167 1164 1161 1159 1156 1154 1152 1150 1148 1147 1145 1143 1141 1139 1137 1135 1133 1131 1129 1126 1124 1121 1119 1116 1114 1112 1110 1108 1107 1106 1105 1105 1105 1105 1106 1107 1109 1111 1113 1115 1117 1120 1122 1125 1128 1130 1133 1135 1138 1140 1142 1144 1146 1147 1149 1151 1152 1154 1155 1157 1158 1160 1161 1162 1164 1165 1166 1167 1168 1169 1169 1169 1168 1167 1166 1164 1162 1159 1156 1152 1148 1143 1139 1134 1130 1125 1121 1117 1114 1111 1108 1107 1106 1106 1106 1108 1111 1114 1119 1125 1132 1140 1150 1160 1172 1186 1201 1217 1235 1254 1274 1295 1316 1338 1360 1382 1404 1425 1447 1467 1487 1505 1523 1539 1554 1569 1582 1594 1605 1616 1626 1635 1644 1652 1660 1667 1675 1681 1688 1695 1701 1707 1713 1719 1724 1730 1735 1740 1745 1750 1755 1760 1765 1769 1774 1778 1782 1787 1791 1795 1799 1804 1808 1812 1816 1820 1825 1829 1833 1838 1842 1846 1851 1855 1860 1865 1869 1874 1879 1883 1888 1893 1898 1903 1908 1914 1919 1925 1931 1938 1944 1952 1959 1967 1976 1985 1995 2005 2016 2027 2038 2050 2061 2073 2085 2096 2107 2118 2128 2137 2146 2154 2161 2167 2172 2177 2181 2184 2186 2188 2189 2190 2190 2190 2189 2187 2186 2184 2181 2178 2175 2171 2167 2163 2158 2153 2147 2141 2135 2128 2120 2112 2104 2096 2087 2078 2069 2060 2051 2043 2035 2027 2019 2013 2007 2001 1997 1993 1991 1989
1112 1111 1111 1111 1112 1113 1115 1117 1119 1122 1125 1129 1133 1137 1141 1146 1151 1156 1161 1167 1173 1178 1184 1190 1196 1202 1208 1214 1220 1225 1231 1236 1241 1246 1251 1255 1259 1263 1266 1269 1272 1274 1276 1278 1279 1280 1281 1281 1281 1280 1279 1277 1276 1274 1271 1269 1266 1263 1260 1256 1253 1249 1246 1242 1238 1234 1231 1227 1223 1220 1216 1212 1209 1206 1202 1199 1196 1193 1191 1188 1186 1184 1182 1180 1179 1178 1176 1176 1175 1174 1174 1174 1174 1174 1175 1176 1177 1178 1179 1180 1181 1182 1184 1185 1186 1187 1188 1189 1189 1190 1190 1190 1190 1189 1189 1188 1187 1186 1185 1184 1182 1181 1179 1177 1174 1172 1170 1167 1165 1162 1160 1157 1155 1153 1151 1149 1148 1146 1145 1145 1144 1144 1144 1144 1144 1144 1145 1145 1146 1147 1148 1148 1149 1150 1150 1151 1152 1152 1153 1153 1153 1154 1154 1154 1154 1154 1154 1154 1154 1154 1154 1154 1155 1155 1156 1157 1159 1161 1164 1167 1171 1176 1182 1188 1195 1203 1211 1220 1229 1237 1246 1255 1263 1271 1278 1285 1291 1295 1299 1302 1304 1305 1305 1305 1304 1302 1300 1297 1294 1291 1287 1284 1280 1276 1272 1268 1264 1260 1256 1252 1248 1244 1239 1235 1231 1227 1223 1219 1215 1210 1206 1202 1199 1195 1191 1187 1184 1180 1177 1174 1171 1168 1166 1163 1161 1159 1157 1155 1153 1151 1149 1148 1146 1144 1142 1140 1138 1136 1133 1131 1129 1126 1124 1121 1119 1117 1115 1113 1112 1110 1109 1109 1109 1109 1110 1111 1112 1114 1115 1117 1119 1122 1124 1127 1129 1131 1134 1136 1138 1141 1143 1145 1147 1149 1150 1152 1154 1156 1157 1159 1161 1162 1164 1166 1167 1169 1170 1171 1172 1173 1173 1173 1173 1172 1171 1169 1167 1164 1160 1156 1152 1147 1143 1138 1133 1128 1124 1119 1115 1112 1109 1107 1106 1105 1106 1107 1109 1113 1117 1122 1129 1137 1146 1156 1168 1181 1196 1212 1229 1248 1268 1288 1309 1331 1352 1374 1396 1417 1438 1459 1478 1497 1514 1530 1545 1559 1572 1584 1595 1605 1615 1624 1633 1641 1648 1656 1662 1669 1676 1682 1688 1694 1700 1706 1711 1717 1722 1727 1732 1737 1742 1747 1751 1756 1761 1765 1770 1774 1778 1783 1787 1792 1796 1800 1805 1809 1814 1818 1822 1827 1832 1836 1841 1846 1850 1855 1860 1865 1870 1875 1880 1885 1890 1895 1901 1906 1912 1918 1924 1931 1938 1945 1953 1961 1970 1979 1989 1999 2010 2021 2032 2044 2056 2068 2079 2091 2102 2113 2123 2133 2142 2150 2157 2164 2170 2175 2179 2182 2185 2187 2189 2190 2190 2190 2190 2189 2187 2186 2183 2181 2178 2174 2170 2166 2161 2156 2151 2145 2139 2132 2124 2117 2109 2100 2092 2083 2074 2065 2057 2048 2040 2032 2025 2019 2013 2008 2003 2000 1997 1996
1112 1111 1111 1111 1112 1113 1115 1117 1120 1123 1126 1130 1134 1138 1143 1148 1153 1158 1164 1170 1176 1182 1188 1194 1200 1207 1213 1219 1225 1231 1237 1242 1247 1252 1257 1261 1265 1269 1273 1276 1278 1281 1283 1284 1286 1287 1287 1287 1287 1286 1285 1283 1281 1279 1277 1274 1271 1268 1264 1261 1257 1254 1250 1246 1242 1239 1235 1231 1227 1223 1220 1216 1213 1209 1206 1203 1200 1197 1194 1192 1189 1187 1185 1183 1181 1180 1179 1178 1177 1176 1176 1176 1176 1176 1177 1178 1178 1179 1181 1182 1183 1184 1186 1187 1188 1189 1190 1191 1191 1192 1192 1192 1192 1192 1191 1191 1190 1189 1188 1187 1185 1183 1182 1180 1177 1175 1173 1170 1168 1166 1163 1161 1159 1157 1155 1153 1152 1151 1150 1149 1149 1149 1149 1149 1149 1150 1151 1151 1152 1153 1154 1155 1155 1156 1157 1158 1158 1159 1159 1160 1160 1160 1161 1161 1161 1161 1161 1161 1161 1161 1161 1162 1162 1163 1164 1165 1167 1169 1172 1176 1180 1185 1190 1197 1204 1212 1220 1228 1237 1246 1254 1263 1271 1279 1286 1292 1298 1302 1306 1309 1310 1311 1311 1311 1310 1308 1305 1303 1300 1296 1292 1288 1285 1280 1276 1272 1268 1264 1260 1255 1251 1247 1243 1238 1234 1230 1226 1222 1218 1214 1210 1206 1202 1198 1195 1191 1188 1184 1181 1178 1175 1173 1170 1168 1166 1163 1161 1160 1158 1156 1154 1152 1151 1149 1147 1145 1143 1141 1139 1136 1134 1131 1129 1126 1124 1122 1120 1118 1117 1115 1114 1114 1113 1113 1114 1114 1115 1117 1118 1120 1122 1124 1126 1128 1130 1132 1135 1137 1139 1141 1143 1145 1147 1149 1151 1153 1155 1157 1159 1161 1163 1165 1167 1169 1170 1172 1174 1175 1176 1177 1177 1178 1177 1177 1175 1173 1171 1168 1164 1160 1156 1151 1146 1141 1136 1131 1126 1121 1117 1113 1110 1108 1106 1105 1105 1106 1108 1111 1115 1120 1126 1134 1142 1152 1164 1177 1191 1207 1224 1242 1261 1282 1302 1324 1345 1367 1388 1409 1430 1450 1469 1487 1504 1520 1535 1548 1561 1573 1584 1594 1604 1612 1621 1629 1636 1643 1650 1657 1663 1669 1675 1681 1687 1692 1698 1703 1709 1714 1719 1724 1729 1733 1738 1743 1748 1752 1757 1761 1766 1771 1775 1780 1784 1789 1793 1798 1803 1807 1812 1817 1821 1826 1831 1836 1841 1846 1851 1856 1861 1866 1872 1877 1882 1888 1893 1899 1905 1911 1917 1924 1931 1939 1947 1955 1964 1973 1983 1993 2004 2016 2027 2039 2051 2063 2075 2086 2097 2108 2119 2129 2138 2146 2154 2161 2167 2172 2177 2181 2184 2187 2189 2190 2191 2191 2191 2190 2189 2188 2186 2184 2181 2178 2174 2170 2165 2160 2155 2149 2143 2136 2129 2121 2113 2105 2097 2088 2079 2071 2062 2054 2046 2038 2031 2025 2019 2014 2010 2007 2005 2003
1111 1111 1111 1111 1112 1114 1116 1118 1121 1124 1127 1131 1135 1140 1145 1150 1155 1161 1166 1172 1179 1185 1191 1198 1204 1211 1217 1224 1230 1236 1242 1248 1253 1258 1263 1268 1272 1276 1279 1282 1285 1287 1289 1291 1292 1293 1293 1293 1293 1292 1290 1289 1287 1284 1282 1279 1276 1273 1269 1266 1262 1258 1254 1250 1246 1243 1239 1235 1231 1227 1224 1220 1216 1213 1210 1206 1203 1200 1197 1195 1192 1190 1188 1186 1184 1183 1181 1180 1179 1178 1178 1178 1178 1178 1179 1179 1180 1181 1182 1184 1185 1186 1187 1189 1190 1191 1192 1193 1194 1194 1194 1195 1195 1194 1194 1193 1193 1192 1191 1189 1188 1186 1184 1183 1180 1178 1176 1174 1171 1169 1167 1165 1163 1161 1159 1157 1156 1155 1154 1154 1154 1154 1154 1154 1155 1156 1157 1157 1158 1159 1160 1161 1162 1163 1164 1164 1165 1165 1166 1166 1167 1167 1167 1168 1168 1168 1168 1168 1168 1169 1169 1169 1170 1171 1172 1173 1175 1178 1181 1184 1189 1194 1199 1206 1213 1221 1229 1237 1246 1254 1263 1271 1279 1287 1293 1300 1305 1310 1313 1315 1317 1318 1318 1317 1315 1313 1311 1308 1305 1301 1297 1293 1289 1285 1281 1276 1272 1268 1263 1259 1255 1250 1246 1242 1237 1233 1229 1225 1221 1217 1213 1209 1205 1202 1198 1195 1192 1188 1185 1182 1180 1177 1175 1172 1170 1168 1166 1164 1163 1161 1159 1158 1156 1154 1152 1150 1148 1146 1144 1142 1139 1137 1134 1132 1130 1128 1126 1124 1122 1121 1120 1119 1118 1118 1118 1118 1119 1120 1121 1122 1124 1125 1127 1129 1131 1133 1135 1137 1139 1141 1143 1145 1148 1150 1152 1154 1156 1158 1160 1162 1164 1166 1169 1171 1173 1175 1176 1178 1179 1180 1181 1181 1181 1180 1179 1177 1175 1172 1168 1164 1159 1154 1149 1144 1139 1133 1128 1123 1119 1115 1111 1109 1106 1105 1105 1105 1107 1109 1113 1118 1124 1131 1139 1149 1160 1172 1186 1201 1218 1236 1255 1275 1295 1316 1337 1359 1380 1401 1421 1441 1460 1478 1494 1510 1524 1538 1550 1562 1572 1582 1592 1600 1608 1616 1623 1630 1637 1643 1650 1656 1662 1668 1673 1679 1684 1690 1695 1700 1705 1710 1715 1720 1725 1730 1734 1739 1744 1749 1754 1758 1763 1768 1773 1777 1782 1787 1792 1797 1802 1807 1812 1817 1822 1827 1832 1837 1842 1848 1853 1858 1864 1869 1875 1880 1886 1892 1898 1905 1911 1918 1925 1933 1941 1949 1958 1968 1978 1988 1999 2011 2022 2034 2046 2058 2070 2082 2093 2104 2115 2125 2135 2143 2151 2158 2165 2170 2175 2180 2183 2186 2189 2191 2192 2193 2193 2193 2192 2191 2189 2187 2184 2181 2178 2174 2170 2165 2160 2154 2148 2141 2134 2127 2119 2110 2102 2094 2085 2076 2068 2060 2052 2045 2038 2031 2026 2021 2017 2014 2012 2011
1111 1111 1111 1112 1113 1114 1116 1118 1121 1124 1128 1132 1136 1141 1146 1151 1157 1163 1169 1175 1181 1188 1195 1202 1208 1215 1222 1228 1235 1241 1247 1253 1259 1264 1269 1274 1278 1282 1285 1289 1291 1294 1296 1297 1298 1299 1299 1299 1298 1297 1296 1294 1292 1290 1287 1284 1281 1277 1274 1270 1266 1262 1258 1254 1251 1247 1243 1239 1235 1231 1227 1224 1220 1217 1213 1210 1207 1204 1201 1198 1195 1193 1191 1189 1187 1185 1184 1182 1181 1180 1180 1180 1180 1180 1180 1181 1182 1183 1184 1185 1187 1188 1189 1191 1192 1193 1194 1195 1196 1196 1197 1197 1197 1197 1196 1196 1195 1194 1193 1192 1191 1189 1187 1186 1184 1181 1179 1177 1175 1173 1171 1168 1167 1165 1163 1162 1161 1160 1159 1159 1159 1159 1159 1160 1161 1162 1163 1164 1165 1166 1167 1168 1169 1170 1171 1171 1172 1172 1173 1173 1174 1174 1174 1175 1175 1175 1175 1176 1176 1176 1177 1177 1178 1179 1180 1182 1184 1187 1190 1194 1198 1203 1209 1215 1222 1230 1238 1246 1254 1263 1271 1279 1287 1295 1301 1307 1313 1317 1320 1322 1324 1324 1324 1323 1321 1319 1316 1313 1310 1306 1302 1298 1293 1289 1285 1280 1276 1271 1267 1262 1258 1254 1249 1245 1241 1236 1232 1228 1224 1220 1216 1212 1209 1205 1202 1199 1195 1192 1189 1187 1184 1182 1179 1177 1175 1173 1171 1170 1168 1166 1164 1163 1161 1159 1158 1156 1154 1152 1150 1147 1145 1143 1141 1138 1136 1134 1132 1130 1128 1127 1125 1124 1123 1123 1123 1123 1123 1124 1124 1125 1126 1128 1129 1130 1132 1134 1136 1137 1139 1141 1143 1145 1148 1150 1152 1154 1156 1159 1161 1163 1165 1168 1170 1172 1175 1177 1179 1181 1182 1183 1184 1184 1184 1184 1183 1181 1178 1175 1172 1167 1163 1158 1152 1147 1141 1136 1130 1125 1121 1116 1113 1109 1107 1106 1105 1105 1106 1108 1111 1116 1121 1128 1136 1145 1156 1168 1181 1196 1213 1230 1249 1268 1288 1309 1330 1351 1371 1392 1412 1431 1450 1467 1484 1499 1513 1526 1539 1550 1560 1570 1579 1588 1596 1603 1610 1617 1624 1630 1636 1642 1648 1654 1659 1665 1670 1676 1681 1686 1691 1696 1701 1706 1711 1716 1721 1726 1731 1736 1741 1746 1751 1756 1761 1766 1771 1776 1781 1787 1792 1797 1802 1807 1813 1818 1823 1829 1834 1840 1845 1851 1857 1862 1868 1874 1880 1886 1892 1899 1906 1913 1920 1928 1936 1945 1954 1963 1973 1984 1995 2006 2018 2030 2042 2054 2066 2078 2090 2101 2112 2122 2132 2140 2149 2156 2163 2169 2174 2179 2183 2187 2189 2192 2193 2194 2195 2195 2195 2194 2192 2190 2188 2185 2182 2178 2174 2170 2164 2159 2153 2146 2139 2132 2124 2116 2108 2100 2091 2083 2074 2066 2059 2051 2045 2039 2033 2029 2025 2022 2021 2020
1111 1111 1111 1112 1113 1115 1117 1119 1122 1125 1129 1133 1138 1142 1147 1153 1159 1165 1171 1177 1184 1191 1198 1205 1212 1219 1226 1233 1240 1246 1253 1259 1265 1270 1275 1280 1284 1288 1292 1295 1297 1300 1302 1303 1304 1305 1305 1305 1304 1303 1301 1300 1297 1295 1292 1289 1285 1282 1278 1274 1271 1267 1263 1259 1255 1251 1247 1243 1239 1235 1231 1227 1224 1220 1217 1213 1210 1207 1204 1201 1198 1196 1194 1191 1189 1187 1186 1185 1183 1182 1182 1181 1181 1182 1182 1183 1183 1185 1186 1187 1188 1190 1191 1192 1194 1195 1196 1197 1198 1199 1199 1199 1199 1199 1199 1198 1198 1197 1196 1195 1194 1192 1191 1189 1187 1185 1183 1181 1179 1176 1174 1173 1171 1169 1168 1166 1165 1165 1164 1164 1164 1165 1165 1166 1167 1168 1169 1170 1171 1173 1174 1175 1176 1177 1178 1178 1179 1180 1180 1181 1181 1181 1182 1182 1182 1183 1183 1183 1184 1184 1185 1185 1186 1187 1189 1191 1193 1196 1199 1203 1207 1212 1218 1225 1232 1239 1247 1255 1264 1272 1280 1288 1296 1303 1309 1315 1320 1324 1327 1329 1330 1331 1330 1329 1327 1325 1322 1318 1315 1311 1307 1302 1298 1293 1289 1284 1280 1275 1270 1266 1261 1257 1252 1248 1244 1239 1235 1231 1227 1223 1220 1216 1212 1209 1206 1202 1199 1196 1194 1191 1189 1186 1184 1182 1180 1178 1176 1175 1173 1172 1170 1168 1167 1165 1164 1162 1160 1158 1156 1154 1152 1149 1147 1145 1143 1140 1138 1136 1135 1133 1131 1130 1129 1128 1128 1127 1127 1127 1128 1128 1129 1130 1131 1132 1133 1135 1136 1138 1140 1141 1143 1145 1147 1150 1152 1154 1156 1159 1161 1164 1166 1169 1171 1174 1176 1179 1181 1183 1184 1186 1187 1187 1187 1187 1186 1184 1182 1179 1175 1171 1166 1161 1155 1150 1144 1138 1133 1128 1123 1118 1114 1111 1108 1106 1105 1105 1106 1108 1110 1114 1119 1126 1133 1142 1152 1164 1177 1191 1207 1225 1243 1262 1281 1301 1322 1342 1363 1383 1403 1422 1440 1457 1473 1488 1502 1515 1527 1538 1548 1557 1566 1575 1582 1590 1597 1603 1610 1616 1622 1628 1634 1640 1645 1651 1656 1662 1667 1672 1677 1682 1688 1693 1698 1703 1708 1713 1719 1724 1729 1734 1740 1745 1750 1755 1761 1766 1771 1777 1782 1788 1793 1799 1804 1810 1816 1821 1827 1833 1838 1844 1850 1856 1862 1868 1874 1880 1887 1894 1901 1908 1915 1923 1931 1940 1949 1959 1969 1980 1991 2003 2014 2026 2038 2051 2063 2075 2086 2098 2109 2119 2129 2138 2147 2154 2162 2168 2174 2179 2183 2187 2190 2193 2195 2197 2198 2198 2198 2197 2196 2195 2192 2190 2187 2183 2179 2175 2170 2164 2158 2152 2145 2138 2130 2123 2114 2106 2098 2089 2081 2073 2066 2059 2052 2046 2041 2037 2033 2031 2029 2029
1112 1111 1112 1112 1113 1115 1117 1120 1123 1126 1130 1134 1139 1144 1149 1154 1160 1167 1173 1180 1187 1194 1201 1208 1216 1223 1230 1237 1244 1251 1258 1264 1270 1275 1281 1285 1290 1294 1297 1301 1303 1306 1308 1309 1310 1311 1311 1310 1310 1308 1307 1305 1302 1300 1297 1294 1290 1287 1283 1279 1275 1271 1267 1263 1259 1254 1250 1246 1243 1239 1235 1231 1227 1224 1220 1217 1214 1210 1207 1204 1201 1199 1196 1194 1192 1190 1188 1187 1185 1184 1184 1183 1183 1183 1184 1184 1185 1186 1187 1189 1190 1191 1193 1194 1196 1197 1198 1199 1200 1201 1201 1201 1202 1202 1201 1201 1200 1200 1199 1198 1197 1195 1194 1192 1190 1188 1186 1184 1182 1181 1179 1177 1175 1174 1172 1171 1171 1170 1170 1170 1170 1171 1171 1172 1173 1174 1176 1177 1178 1180 1181 1182 1183 1184 1185 1186 1186 1187 1188 1188 1188 1189 1189 1190 1190 1190 1191 1191 1192 1192 1193 1194 1195 1196 1198 1200 1203 1205 1209 1213 1217 1222 1228 1235 1242 1249 1257 1265 1273 1281 1289 1297 1304 1311 1318 1323 1328 1332 1334 1336 1337 1337 1336 1335 1333 1330 1327 1324 1320 1316 1311 1307 1302 1297 1293 1288 1283 1279 1274 1269 1265 1260 1256 1251 1247 1243 1238 1234 1230 1227 1223 1219 1216 1213 1209 1206 1203 1201 1198 1196 1193 1191 1189 1187 1185 1183 1182 1180 1179 1177 1176 1174 1173 1171 1170 1168 1166 1164 1163 1160 1158 1156 1154 1152 1150 1147 1145 1143 1141 1140 1138 1137 1135 1134 1133 1133 1132 1132 1132 1132 1132 1132 1133 1134 1135 1136 1137 1138 1140 1141 1143 1145 1147 1149 1152 1154 1157 1159 1162 1164 1167 1170 1172 1175 1178 1180 1182 1184 1186 1188 1189 1189 1190 1189 1188 1187 1185 1182 1178 1174 1169 1164 1158 1153 1147 1141 1135 1130 1125 1120 1116 1112 1109 1107 1106 1105 1106 1107 1110 1113 1118 1124 1131 1139 1149 1160 1173 1187 1202 1219 1237 1255 1274 1294 1314 1334 1354 1374 1393 1412 1429 1446 1462 1477 1490 1503 1514 1525 1535 1545 1553 1561 1569 1576 1583 1589 1596 1602 1608 1614 1620 1625 1631 1636 1642 1647 1653 1658 1663 1669 1674 1679 1685 1690 1695 1701 1706 1712 1717 1723 1728 1734 1739 1745 1751 1756 1762 1768 1773 1779 1785 1791 1796 1802 1808 1814 1820 1826 1832 1838 1844 1850 1856 1863 1869 1875 1882 1889 1896 1903 1911 1919 1928 1936 1946 1955 1966 1976 1988 1999 2011 2023 2035 2047 2060 2072 2083 2095 2106 2117 2127 2136 2145 2153 2161 2167 2173 2179 2184 2188 2192 2195 2197 2199 2200 2201 2202 2201 2200 2199 2197 2195 2192 2189 2185 2180 2176 2170 2165 2158 2152 2145 2137 2129 2121 2113 2105 2097 2089 2081 2074 2067 2060 2055 2050 2045 2042 2040 2038 2038
1112 1112 1112 1113 1114 1116 1118 1121 1124 1127 1131 1135 1140 1145 1150 1156 1162 1168 1175 1182 1189 1196 1204 1211 1219 1226 1234 1241 1249 1256 1262 1269 1275 1281 1286 1291 1295 1299 1303 1306 1309 1311 1313 1315 1316 1316 1316 1316 1315 1314 1312 1310 1307 1305 1301 1298 1295 1291 1287 1283 1279 1275 1271 1267 1262 1258 1254 1250 1246 1242 1238 1235 1231 1227 1224 1220 1217 1214 1210 1207 1204 1202 1199 1197 1194 1192 1190 1189 1187 1186 1186 1185 1185 1185 1185 1186 1187 1188 1189 1190 1192 1193 1195 1196 1197 1199 1200 1201 1202 1203 1203 1204 1204 1204 1204 1203 1203 1202 1201 1201 1199 1198 1197 1195 1194 1192 1190 1188 1186 1185 1183 1181 1180 1179 1178 1177 1176 1176 1176 1176 1176 1177 1178 1179 1180 1181 1183 1184 1185 1187 1188 1189 1191 1192 1193 1193 1194 1195 1195 1196 1196 1197 1197 1197 1198 1198 1199 1199 1200 1201 1202 1203 1204 1206 1207 1210 1212 1215 1219 1223 1228 1233 1239 1245 1252 1259 1267 1275 1283 1291 1299 1306 1313 1320 1326 1331 1336 1339 1342 1343 1344 1344 1343 1341 1339 1336 1333 1329 1325 1320 1316 1311 1306 1302 1297 1292 1287 1282 1278 1273 1268 1264 1259 1255 1250 1246 1242 1238 1234 1230 1227 1223 1220 1217 1213 1211 1208 1205 1203 1200 1198 1196 1194 1192 1190 1189 1187 1186 1185 1183 1182 1180 1179 1178 1176 1175 1173 1171 1170 1168 1166 1164 1161 1159 1157 1155 1153 1151 1149 1147 1145 1144 1142 1141 1139 1138 1137 1137 1136 1136 1135 1135 1135 1136 1136 1137 1138 1139 1140 1142 1143 1145 1147 1149 1152 1154 1157 1159 1162 1165 1167 1170 1173 1176 1179 1181 1184 1186 1188 1190 1191 1192 1192 1192 1191 1189 1187 1184 1181 1176 1172 1167 1161 1155 1150 1144 1138 1133 1127 1122 1118 1114 1111 1109 1107 1106 1106 1107 1110 1113 1117 1122 1129 1137 1146 1157 1169 1183 1198 1214 1231 1249 1268 1287 1306 1326 1345 1365 1383 1402 1419 1435 1451 1465 1478 1490 1502 1512 1522 1531 1540 1548 1555 1562 1569 1575 1581 1587 1593 1599 1605 1611 1616 1622 1627 1633 1638 1644 1649 1655 1660 1666 1671 1677 1683 1688 1694 1700 1706 1712 1717 1723 1729 1735 1741 1747 1753 1759 1765 1771 1777 1783 1789 1795 1801 1808 1814 1820 1826 1832 1839 1845 1851 1858 1864 1871 1878 1885 1892 1900 1907 1916 1924 1933 1942 1952 1963 1973 1985 1996 2008 2020 2033 2045 2057 2069 2081 2093 2104 2115 2125 2135 2144 2152 2160 2167 2174 2180 2185 2190 2194 2197 2200 2202 2204 2205 2206 2206 2205 2204 2202 2200 2198 2194 2191 2187 2182 2177 2171 2165 2159 2152 2144 2137 2129 2121 2113 2105 2097 2089 2082 2075 2069 2064 2059 2055 2052 2050 2048 2048
1113 1113 1113 1114 1115 1117 1119 1122 1125 1128 1132 1136 1141 1146 1152 1158 1164 1170 1177 1184 1191 1199 1207 1214 1222 1230 1238 1245 1253 1260 1267 1273 1280 1286 1291 1296 1301 1305 1308 1312 1314 1317 1319 1320 1321 1321 1321 1321 1320 1319 1317 1315 1312 1309 1306 1303 1299 1295 1291 1287 1283 1279 1275 1270 1266 1262 1258 1254 1250 1246 1242 1238 1234 1231 1227 1224 1220 1217 1214 1210 1207 1204 1202 1199 1197 1195 1193 1191 1189 1188 1187 1187 1186 1186 1187 1187 1188 1189 1190 1192 1193 1195 1196 1198 1199 1201 1202 1203 1204 1205 1205 1206 1206 1206 1206 1206 1205 1205 1204 1203 1202 1201 1200 1199 1197 1196 1194 1192 1191 1189 1188 1186 1185 1184 1183 1182 1182 1182 1182 1182 1183 1183 1185 1186 1187 1188 1190 1191 1193 1194 1196 1197 1198 1199 1200 1201 1202 1203 1203 1204 1204 1205 1205 1205 1206 1206 1207 1208 1209 1209 1211 1212 1213 1215 1217 1220 1222 1226 1229 1233 1238 1243 1249 1256 1263 1270 1277 1285 1293 1301 1308 1316 1322 1329 1335 1340 1344 1347 1349 1350 1351 1350 1349 1347 1345 1342 1338 1334 1330 1325 1321 1316 1311 1306 1301 1296 1291 1286 1281 1276 1272 1267 1263 1258 1254 1250 1245 1241 1238 1234 1230 1227 1224 1221 1218 1215 1212 1210 1207 1205 1203 1201 1199 1198 1196 1195 1193 1192 1191 1189 1188 1187 1186 1185 1183 1182 1180 1179 1177 1175 1173 1171 1169 1167 1165 1163 1161 1159 1157 1155 1153 1151 1149 1148 1146 1144 1143 1142 1141 1140 1139 1139 1138 1138 1138 1139 1139 1140 1141 1142 1144 1146 1147 1150 1152 1154 1157 1159 1162 1165 1168 1171 1174 1177 1180 1182 1185 1187 1189 1191 1193 1193 1194 1194 1193 1192 1190 1187 1183 1179 1175 1169 1164 1158 1153 1147 1141 1135 1130 1125 1120 1116 1113 1110 1109 1108 1107 1108 1110 1113 1117 1122 1128 1135 1144 1154 1166 1179 1194 1209 1226 1243 1261 1280 1299 1318 1337 1355 1374 1391 1408 1424 1439 1453 1466 1478 1489 1499 1509 1518 1526 1534 1541 1548 1554 1561 1567 1573 1579 1585 1590 1596 1602 1607 1613 1619 1624 1630 1635 1641 1647 1653 1658 1664 1670 1676 1682 1688 1695 1701 1707 1713 1719 1726 1732 1738 1745 1751 1757 1764 1770 1776 1783 1789 1795 1802 1808 1814 1821 1827 1834 1840 1847 1854 1860 1867 1874 1881 1889 1896 1904 1913 1921 1930 1940 1950 1960 1971 1982 1994 2006 2018 2031 2043 2055 2067 2079 2091 2103 2114 2124 2134 2143 2152 2160 2168 2174 2181 2186 2191 2196 2200 2203 2206 2208 2209 2210 2210 2210 2209 2208 2206 2204 2201 2197 2193 2189 2184 2178 2172 2166 2159 2152 2144 2137 2129 2121 2113 2106 2098 2091 2085 2079 2073 2069 2065 2062 2060 2059 2059
1113 1113 1114 1115 1116 1118 1120 1123 1126 1129 1133 1138 1143 1148 1153 1159 1165 1172 1179 1186 1194 1201 1209 1217 1225 1233 1241 1249 1256 1264 1271 1278 1284 1290 1296 1301 1305 1309 1313 1316 1319 1322 1323 1325 1326 1326 1326 1326 1325 1323 1321 1319 1316 1314 1310 1307 1303 1299 1295 1291 1287 1282 1278 1274 1270 1266 1261 1257 1253 1249 1245 1242 1238 1234 1230 1227 1223 1220 1217 1213 1210 1207 1204 1202 1199 1197 1195 1193 1191 1190 1189 1188 1188 1188 1188 1189 1190 1191 1192 1193 1195 1196 1198 1199 1201 1202 1204 1205 1206 1207 1207 1208 1208 1208 1208 1208 1208 1207 1207 1206 1205 1204 1203 1202 1201 1199 1198 1196 1195 1194 1192 1191 1190 1189 1189 1188 1188 1188 1188 1189 1189 1190 1192 1193 1194 1196 1197 1199 1201 1202 1204 1205 1206 1207 1208 1209 1210 1211 1211 1212 1212 1213 1213 1214 1214 1215 1216 1217 1218 1219 1220 1221 1223 1225 1227 1230 1233 1236 1240 1244 1249 1255 1260 1267 1274 1281 1288 1296 1303 1311 1318 1325 1332 1338 1343 1348 1352 1355 1357 1358 1358 1357 1356 1353 1351 1347 1344 1339 1335 1330 1325 1320 1315 1310 1305 1300 1295 1290 1285 1280 1275 1271 1266 1262 1257 1253 1249 1245 1242 1238 1234 1231 1228 1225 1222 1219 1217 1215 1212 1210 1208 1206 1205 1203 1202 1201 1199 1198 1197 1196 1195 1194 1193 1192 1191 1189 1188 1187 1185 1183 1182 1180 1178 1176 1174 1172 1170 1168 1165 1163 1161 1159 1157 1155 1153 1151 1149 1148 1146 1145 1144 1143 1142 1141 1141 1141 1141 1141 1142 1143 1145 1146 1148 1150 1152 1155 1157 1160 1163 1165 1168 1171 1174 1177 1180 1183 1186 1188 1191 1193 1194 1195 1196 1196 1195 1194 1192 1189 1186 1182 1177 1172 1167 1161 1156 1150 1144 1138 1133 1128 1123 1119 1116 1113 1111 1109 1109 1109 1111 1113 1117 1121 1127 1134 1143 1152 1163 1176 1190 1205 1221 1238 1255 1273 1291 1310 1328 1346 1364 1381 1398 1413 1428 1441 1454 1465 1476 1486 1495 1504 1512 1519 1526 1533 1540 1546 1552 1558 1564 1570 1576 1581 1587 1593 1599 1604 1610 1616 1622 1628 1634 1640 1646 1652 1658 1664 1671 1677 1684 1690 1697 1704 1710 1717 1724 1730 1737 1743 1750 1757 1763 1770 1777 1783 1790 1796 1803 1810 1816 1823 1830 1836 1843 1850 1857 1864 1871 1878 1886 1894 1902 1910 1919 1928 1938 1948 1958 1969 1981 1992 2004 2017 2029 2041 2054 2066 2078 2090 2102 2113 2124 2134 2143 2152 2161 2169 2176 2182 2188 2194 2199 2203 2207 2210 2212 2214 2215 2216 2216 2215 2214 2212 2210 2207 2204 2200 2196 2191 2186 2180 2174 2167 2160 2153 2145 2138 2130 2122 2115 2108 2101 2095 2089 2084 2079 2075 2073 2071 2070 2070
1115 1114 1115 1116 1117 1119 1121 1124 1127 1131 1135 1139 1144 1149 1155 1161 1167 1174 1181 1188 1196 1204 1212 1220 1228 1236 1244 1252 1260 1267 1274 1281 1288 1294 1300 1305 1310 1314 1318 1321 1324 1326 1328 1329 1330 1331 1331 1330 1329 1328 1326 1323 1321 1318 1314 1311 1307 1303 1299 1295 1290 1286 1282 1277 1273 1269 1265 1261 1257 1253 1249 1245 1241 1237 1233 1230 1226 1223 1219 1216 1213 1210 1207 1204 1201 1199 1197 1195 1193 1192 1191 1190 1189 1189 1190 1190 1191 1192 1193 1195 1196 1198 1199 1201 1202 1204 1205 1207 1208 1209 1209 1210 1210 1210 1211 1210 1210 1210 1209 1209 1208 1207 1206 1205 1204 1203 1202 1201 1200 1198 1197 1197 1196 1195 1195 1194 1194 1194 1195 1196 1197 1198 1199 1201 1202 1204 1205 1207 1209 1210 1212 1213 1215 1216 1217 1218 1218 1219 1220 1220 1221 1221 1222 1223 1223 1224 1225 1226 1227 1228 1230 1231 1233 1236 1238 1241 1244 1248 1252 1256 1261 1266 1272 1278 1285 1292 1299 1307 1314 1321 1329 1335 1342 1347 1352 1357 1360 1363 1365 1365 1365 1364 1362 1360 1357 1353 1349 1345 1340 1335 1330 1325 1319 1314 1309 1304 1299 1294 1289 1284 1279 1275 1270 1266 1261 1257 1253 1249 1246 1242 1239 1236 1233 1230 1227 1224 1222 1220 1218 1216 1214 1212 1211 1209 1208 1207 1206 1205 1204 1203 1202 1201 1200 1199 1198 1197 1196 1195 1193 1192 1190 1189 1187 1185 1183 1181 1179 1177 1175 1172 1170 1168 1165 1163 1161 1159 1156 1154 1152 1150 1149 1147 1146 1145 1144 1144 1143 1144 1144 1145 1146 1147 1149 1151 1153 1155 1158 1160 1163 1166 1169 1172 1175 1178 1181 1184 1187 1190 1192 1194 1196 1197 1197 1198 1197 1196 1194 1192 1188 1185 1180 1175 1170 1164 1159 1153 1147 1142 1136 1131 1127 1122 1119 1116 1114 1112 1111 1111 1113 1115 1118 1122 1127 1134 1142 1151 1161 1173 1187 1201 1216 1232 1249 1267 1284 1302 1320 1337 1354 1371 1387 1402 1416 1429 1441 1452 1463 1472 1481 1490 1498 1505 1512 1519 1525 1531 1537 1543 1549 1555 1561 1567 1573 1578 1584 1590 1596 1602 1608 1614 1620 1627 1633 1640 1646 1653 1660 1667 1674 1681 1688 1695 1702 1709 1716 1723 1730 1737 1744 1751 1758 1764 1771 1778 1785 1792 1799 1806 1813 1819 1826 1833 1840 1847 1854 1861 1869 1876 1884 1892 1900 1908 1917 1927 1936 1946 1957 1968 1979 1991 2003 2016 2028 2040 2053 2065 2078 2090 2101 2113 2124 2134 2144 2153 2162 2170 2178 2185 2191 2197 2202 2207 2211 2214 2217 2219 2220 2221 2222 2221 2220 2219 2217 2215 2211 2208 2204 2199 2194 2189 2183 2176 2169 2162 2155 2147 2140 2132 2125 2118 2111 2105 2100 2095 2090 2087 2084 2083 2082 2082
1116 1116 1116 1117 1119 1120 1123 1126 1129 1132 1136 1141 1146 1151 1157 1163 1169 1176 1183 1190 1198 1206 1214 1222 1230 1238 1247 1255 1263 1270 1278 1285 1291 1297 1303 1308 1313 1318 1321 1325 1328 1330 1332 1333 1334 1335 1335 1334 1333 1332 1330 1327 1325 1321 1318 1314 1311 1307 1302 1298 1294 1289 1285 1281 1276 1272 1268 1264 1260 1256 1252 1248 1244 1240 1236 1233 1229 1226 1222 1219 1215 1212 1209 1206 1203 1201 1199 1197 1195 1193 1192 1191 1191 1191 1191 1191 1192 1193 1194 1196 1197 1199 1201 1202 1204 1205 1207 1208 1209 1210 1211 1212 1212 1212 1213 1213 1213 1212 1212 1211 1211 1210 1210 1209 1208 1207 1206 1205 1204 1203 1203 1202 1202 1201 1201 1201 1201 1202 1202 1203 1204 1206 1207 1209 1210 1212 1214 1215 1217 1219 1220 1222 1223 1224 1225 1226 1227 1228 1229 1229 1230 1230 1231 1232 1233 1233 1234 1236 1237 1238 1240 1242 1244 1246 1249 1252 1256 1259 1263 1268 1273 1278 1284 1290 1297 1304 1311 1318 1325 1332 1339 1346 1352 1357 1362 1366 1369 1371 1373 1373 1372 1371 1369 1366 1363 1359 1355 1350 1345 1340 1334 1329 1324 1318 1313 1308 1303 1298 1293 1288 1283 1279 1274 1270 1266 1261 1258 1254 1250 1247 1244 1240 1237 1235 1232 1230 1227 1225 1223 1221 1220 1218 1217 1216 1214 1213 1213 1212 1211 1210 1210 1209 1208 1207 1206 1206 1205 1203 1202 1201 1199 1198 1196 1195 1193 1191 1189 1186 1184 1182 1180 1177 1174 1172 1169 1167 1164 1161 1159 1157 1154 1152 1151 1149 1148 1147 1147 1146 1147 1147 1148 1149 1151 1152 1154 1157 1159 1162 1164 1167 1170 1173 1176 1179 1182 1185 1188 1191 1193 1195 1197 1198 1199 1199 1199 1198 1196 1194 1191 1187 1183 1178 1173 1168 1162 1157 1151 1145 1140 1135 1130 1126 1122 1119 1117 1115 1114 1114 1115 1117 1119 1123 1128 1134 1142 1150 1160 1171 1184 1198 1212 1228 1244 1261 1277 1294 1311 1328 1345 1361 1376 1391 1404 1417 1428 1439 1449 1459 1467 1476 1483 1490 1497 1504 1510 1516 1522 1528 1534 1540 1546 1552 1558 1564 1570 1576 1582 1589 1595 1601 1608 1614 1621 1628 1635 1642 1649 1657 1664 1671 1679 1686 1694 1701 1709 1716 1723 1731 1738 1745 1753 1760 1767 1774 1781 1788 1795 1802 1809 1816 1824 1831 1838 1845 1852 1859 1867 1874 1882 1890 1898 1907 1916 1925 1935 1945 1956 1967 1979 1991 2003 2015 2028 2040 2053 2065 2078 2090 2102 2113 2124 2135 2145 2155 2164 2172 2180 2187 2194 2200 2206 2211 2215 2219 2222 2224 2226 2228 2228 2228 2227 2226 2225 2222 2219 2216 2212 2208 2203 2198 2192 2186 2179 2172 2165 2158 2150 2143 2136 2129 2123 2117 2111 2107 2103 2099 2097 2096 2095 2095
1117 1117 1118 1119 1120 1122 1125 1127 1131 1134 1138 1143 1147 1153 1158 1164 1171 1178 1185 1192 1200 1208 1216 1224 1232 1241 1249 1257 1265 1273 1280 1287 1294 1300 1306 1312 1316 1321 1325 1328 1331 1334 1336 1337 1338 1339 1339 1338 1337 1335 1333 1331 1328 1325 1322 1318 1314 1310 1306 1301 1297 1292 1288 1284 1279 1275 1271 1267 1263 1259 1255 1251 1247 1243 1239 1235 1232 1228 1225 1221 1218 1214 1211 1208 1205 1203 1200 1198 1196 1195 1194 1193 1192 1192 1192 1193 1193 1194 1196 1197 1199 1200 1202 1204 1205 1207 1208 1210 1211 1212 1213 1213 1214 1214 1215 1215 1215 1215 1214 1214 1214 1213 1213 1212 1212 1211 1210 1210 1209 1209 1208 1208 1208 1208 1208 1208 1208 1209 1210 1211 1212 1214 1215 1217 1219 1220 1222 1224 1226 1228 1229 1231 1232 1233 1234 1235 1236 1237 1238 1238 1239 1240 1241 1241 1242 1243 1244 1246 1247 1249 1251 1253 1255 1258 1261 1264 1268 1271 1276 1280 1285 1291 1297 1303 1309 1316 1323 1330 1337 1344 1350 1356 1362 1367 1372 1375 1378 1380 1381 1381 1380 1378 1376 1373 1369 1365 1360 1355 1350 1345 1339 1334 1328 1323 1317 1312 1307 1302 1297 1292 1287 1283 1278 1274 1270 1266 1262 1259 1255 1252 1249 1246 1243 1240 1238 1235 1233 1231 1229 1228 1226 1225 1223 1222 1221 1221 1220 1219 1219 1218 1217 1217 1216 1216 1215 1214 1214 1213 1212 1211 1209 1208 1206 1205 1203 1201 1199 1197 1195 1192 1190 1187 1184 1181 1178 1175 1172 1169 1166 1164 1161 1159 1156 1154 1153 1151 1150 1150 1150 1150 1151 1152 1153 1154 1156 1158 1161 1163 1166 1169 1171 1174 1178 1181 1184 1187 1190 1192 1195 1197 1199 1200 1201 1201 1201 1200 1199 1196 1193 1190 1186 1181 1176 1171 1166 1160 1155 1150 1144 1139 1135 1130 1127 1124 1121 1119 1118 1118 1118 1120 1122 1125 1130 1135 1142 1150 1160 1170 1182 1195 1209 1224 1239 1255 1271 1287 1303 1320 1335 1351 1365 1379 1392 1404 1415 1426 1436 1445 1453 1461 1469 1476 1483 1489 1495 1501 1508 1514 1520 1526 1532 1538 1544 1550 1556 1562 1569 1575 1582 1589 1595 1602 1610 1617 1624 1632 1640 1647 1655 1663 1671 1679 1687 1695 1702 1710 1718 1726 1733 1741 1748 1756 1763 1771 1778 1785 1793 1800 1807 1814 1821 1829 1836 1843 1850 1858 1865 1873 1881 1889 1898 1906 1915 1925 1935 1945 1956 1967 1979 1990 2003 2015 2028 2041 2053 2066 2078 2091 2103 2115 2126 2137 2147 2157 2166 2175 2183 2191 2198 2204 2210 2216 2220 2224 2228 2230 2233 2234 2235 2235 2235 2234 2233 2230 2228 2225 2221 2217 2212 2207 2202 2196 2189 2183 2176 2169 2162 2155 2148 2141 2135 2129 2124 2119 2116 2113 2110 2109 2109 2109
1119 1119 1120 1121 1122 1124 1127 1129 1133 1136 1140 1145 1150 1155 1160 1166 1173 1179 1187 1194 1202 1210 1218 1226 1234 1243 1251 1259 1267 1275 1282 1290 1296 1303 1309 1314 1319 1323 1328 1331 1334 1337 1339 1340 1341 1342 1342 1341 1340 1339 1337 1334 1331 1328 1325 1321 1317 1313 1309 1304 1300 1295 1291 1286 1282 1278 1274 1269 1265 1261 1257 1253 1249 1245 1242 1238 1234 1231 1227 1223 1220 1216 1213 1210 1207 1205 1202 1200 1198 1196 1195 1194 1193 1193 1193 1194 1194 1195 1197 1198 1200 1201 1203 1205 1206 1208 1210 1211 1212 1213 1214 1215 1216 1216 1216 1217 1217 1217 1217 1217 1216 1216 1216 1216 1215 1215 1215 1214 1214 1214 1214 1214 1214 1214 1215 1215 1216 1217 1218 1219 1221 1222 1224 1226 1228 1229 1231 1233 1235 1237 1238 1240 1241 1242 1244 1245 1245 1246 1247 1248 1249 1249 1250 1251 1252 1253 1255 1256 1258 1260 1262 1264 1267 1270 1273 1276 1280 1284 1289 1293 1298 1304 1310 1316 1322 1329 1336 1342 1349 1355 1362 1367 1373 1377 1381 1385 1387 1389 1389 1389 1387 1385 1383 1379 1375 1371 1366 1361 1355 1350 1344 1338 1333 1327 1322 1316 1311 1306 1301 1297 1292 1287 1283 1279 1275 1271 1267 1264 1260 1257 1254 1251 1248 1246 1244 1241 1239 1237 1236 1234 1233 1231 1230 1229 1229 1228 1227 1227 1227 1226 1226 1225 1225 1225 1224 1224 1223 1222 1222 1221 1220 1218 1217 1215 1214 1212 1210 1208 1206 1203 1200 1198 1195 1191 1188 1185 1181 1178 1175 1172 1169 1166 1163 1161 1158 1157 1155 1154 1154 1154 1154 1155 1156 1157 1159 1161 1163 1165 1168 1171 1173 1176 1179 1182 1185 1188 1191 1194 1196 1198 1200 1201 1202 1203 1203 1202 1201 1199 1196 1193 1189 1184 1180 1175 1170 1164 1159 1154 1149 1144 1140 1135 1132 1129 1126 1124 1123 1122 1122 1123 1125 1128 1132 1138 1144 1151 1160 1170 1181 1193 1206 1220 1235 1250 1265 1280 1296 1311 1326 1341 1355 1368 1380 1392 1403 1413 1422 1431 1439 1447 1454 1461 1468 1474 1480 1487 1493 1499 1505 1511 1517 1523 1530 1536 1542 1549 1556 1562 1569 1576 1584 1591 1598 1606 1614 1622 1630 1639 1647 1655 1664 1672 1680 1689 1697 1705 1713 1722 1730 1737 1745 1753 1761 1768 1776 1783 1791 1798 1806 1813 1820 1828 1835 1842 1850 1857 1865 1873 1881 1889 1897 1906 1915 1925 1935 1945 1956 1967 1979 1991 2003 2016 2029 2042 2054 2067 2080 2092 2105 2117 2128 2139 2150 2160 2169 2178 2187 2195 2202 2209 2215 2221 2226 2230 2234 2237 2239 2241 2242 2243 2243 2242 2241 2239 2237 2234 2231 2227 2222 2218 2212 2206 2200 2194 2187 2181 2174 2167 2160 2154 2148 2143 2138 2133 2130 2127 2125 2124 2124 2124
1121 1121 1122 1123 1125 1127 1129 1132 1135 1139 1143 1147 1152 1157 1163 1169 1175 1182 1189 1196 1204 1212 1220 1228 1236 1244 1253 1261 1269 1276 1284 1291 1298 1304 1310 1316 1321 1325 1330 1333 1336 1339 1341 1343 1344 1344 1345 1344 1343 1342 1340 1337 1334 1331 1328 1324 1320 1316 1311 1307 1302 1298 1293 1289 1285 1280 1276 1272 1268 1264 1260 1256 1252 1248 1244 1240 1236 1233 1229 1225 1222 1218 1215 1212 1209 1206 1203 1201 1199 1197 1196 1195 1194 1194 1194 1195 1195 1196 1198 1199 1201 1202 1204 1206 1208 1209 1211 1212 1214 1215 1216 1216 1217 1218 1218 1218 1219 1219 1219 1219 1219 1219 1219 1219 1219 1219 1219 1219 1219 1220 1220 1220 1221 1222 1222 1223 1224 1225 1227 1228 1230 1231 1233 1235 1237 1239 1241 1243 1244 1246 1248 1249 1251 1252 1253 1254 1255 1256 1257 1258 1259 1260 1261 1262 1263 1264 1266 1267 1269 1271 1274 1276 1279 1282 1286 1289 1293 1297 1302 1307 1312 1317 1323 1329 1336 1342 1349 1355 1361 1368 1373 1379 1384 1388 1392 1395 1397 1398 1398 1397 1395 1393 1390 1386 1382 1377 1372 1366 1361 1355 1349 1343 1337 1332 1326 1321 1316 1311 1306 1301 1297 1292 1288 1284 1280 1276 1273 1269 1266 1263 1260 1257 1255 1252 1250 1248 1246 1244 1242 1241 1240 1239 1238 1237 1236 1236 1236 1235 1235 1235 1235 1235 1234 1234 1234 1234 1233 1233 1232 1231 1230 1229 1228 1227 1225 1223 1222 1219 1217 1215 1212 1209 1206 1202 1199 1195 1192 1188 1184 1180 1177 1174 1171 1168 1165 1163 1161 1160 1159 1159 1159 1159 1160 1161 1163 1164 1166 1168 1171 1173 1176 1179 1182 1184 1187 1190 1193 1196 1198 1200 1202 1203 1204 1205 1205 1204 1203 1201 1198 1195 1192 1188 1183 1179 1174 1169 1164 1159 1154 1149 1145 1141 1137 1134 1132 1129 1128 1127 1127 1128 1130 1132 1136 1141 1146 1153 1161 1170 1181 1192 1205 1218 1231 1245 1260 1274 1289 1303 1317 1331 1344 1357 1369 1380 1390 1400 1409 1417 1425 1433 1440 1447 1453 1459 1466 1472 1478 1484 1490 1496 1503 1509 1516 1522 1529 1536 1543 1550 1557 1564 1572 1580 1588 1596 1605 1613 1622 1631 1639 1648 1657 1666 1675 1684 1693 1701 1710 1718 1727 1735 1743 1751 1759 1767 1774 1782 1790 1797 1805 1812 1820 1827 1835 1842 1849 1857 1865 1873 1881 1889 1898 1907 1916 1925 1935 1946 1957 1968 1980 1992 2005 2017 2030 2043 2056 2069 2082 2095 2107 2119 2131 2142 2153 2164 2173 2183 2191 2200 2207 2214 2221 2227 2232 2237 2241 2244 2247 2249 2250 2251 2251 2251 2250 2248 2246 2244 2241 2237 2233 2229 2223 2218 2212 2206 2200 2193 2187 2180 2174 2168 2162 2157 2152 2148 2145 2142 2140 2139 2139 2140
1123 1124 1124 1126 1127 1129 1132 1134 1138 1141 1145 1150 1154 1159 1165 1171 1177 1184 1191 1198 1205 1213 1221 1229 1237 1246 1254 1262 1270 1277 1285 1292 1299 1305 1311 1317 1322 1327 1331 1335 1338 1341 1343 1345 1346 1347 1347 1346 1345 1344 1342 1340 1337 1334 1330 1326 1322 1318 1314 1309 1305 1300 1296 1291 1287 1282 1278 1274 1270 1266 1262 1258 1254 1250 1246 1242 1238 1235 1231 1227 1224 1220 1217 1213 1210 1207 1205 1202 1200 1198 1197 1196 1195 1195 1195 1195 1196 1197 1198 1200 1201 1203 1205 1207 1208 1210 1212 1213 1215 1216 1217 1218 1218 1219 1219 1220 1220 1221 1221 1221 1221 1222 1222 1222 1223 1223 1224 1224 1225 1225 1226 1227 1228 1229 1230 1231 1233 1234 1236 1237 1239 1241 1243 1245 1247 1249 1251 1252 1254 1256 1258 1259 1261 1262 1263 1264 1265 1266 1267 1268 1269 1270 1271 1273 1274 1275 1277 1279 1281 1284 1286 1289 1292 1295 1299 1303 1307 1311 1316 1321 1326 1331 1337 1343 1349 1356 1362 1368 1374 1380 1386 1391 1395 1399 1402 1405 1406 1407 1407 1405 1403 1401 1397 1393 1388 1383 1378 1372 1366 1360 1354 1348 1342 1336 1331 1326 1321 1316 1311 1306 1302 1298 1294 1290 1286 1282 1279 1275 1272 1269 1267 1264 1261 1259 1257 1255 1253 1251 1250 1248 1247 1246 1246 1245 1245 1244 1244 1244 1244 1244 1244 1244 1244 1244 1244 1244 1244 1244 1243 1243 1242 1241 1240 1239 1237 1236 1234 1232 1229 1227 1224 1221 1218 1214 1210 1206 1202 1198 1194 1190 1186 1183 1179 1176 1173 1170 1168 1167 1165 1165 1164 1165 1165 1166 1167 1168 1170 1172 1174 1177 1179 1182 1184 1187 1190 1193 1195 1198 1200 1202 1204 1205 1206 1207 1207 1206 1205 1203 1201 1198 1195 1191 1187 1183 1178 1174 1169 1164 1160 1155 1151 1147 1144 1141 1138 1136 1134 1133 1133 1134 1135 1138 1141 1145 1150 1156 1163 1172 1182 1192 1203 1216 1228 1241 1255 1268 1282 1295 1309 1322 1334 1346 1357 1367 1377 1386 1395 1403 1411 1418 1425 1432 1438 1445 1451 1457 1463 1470 1476 1482 1489 1495 1502 1509 1516 1523 1530 1538 1545 1553 1561 1570 1578 1587 1596 1605 1614 1623 1633 1642 1652 1661 1670 1680 1689 1698 1707 1716 1725 1733 1742 1750 1758 1766 1774 1782 1790 1797 1805 1812 1820 1827 1835 1842 1850 1858 1865 1873 1882 1890 1899 1907 1917 1926 1937 1947 1958 1970 1982 1994 2007 2019 2032 2046 2059 2072 2085 2098 2111 2123 2135 2146 2157 2168 2178 2188 2197 2205 2213 2220 2227 2233 2239 2244 2248 2252 2255 2257 2259 2260 2260 2260 2260 2258 2257 2254 2251 2248 2244 2240 2236 2230 2225 2219 2213 2207 2201 2194 2188 2183 2177 2172 2168 2164 2161 2158 2157 2156 2156 2157
1126 1127 1127 1129 1130 1132 1135 1137 1141 1144 1148 1153 1157 1162 1168 1173 1180 1186 1193 1200 1207 1215 1223 1231 1239 1247 1255 1262 1270 1278 1285 1292 1299 1306 1312 1317 1322 1327 1332 1335 1339 1342 1344 1346 1347 1348 1348 1348 1347 1346 1344 1342 1339 1336 1332 1328 1324 1320 1316 1311 1307 1302 1298 1293 1289 1284 1280 1276 1272 1267 1263 1259 1255 1252 1248 1244 1240 1236 1232 1229 1225 1221 1218 1215 1212 1209 1206 1203 1201 1199 1198 1197 1196 1196 1196 1196 1197 1198 1199 1201 1202 1204 1206 1208 1209 1211 1213 1214 1216 1217 1218 1219 1220 1220 1221 1221 1222 1222 1223 1223 1224 1224 1225 1226 1226 1227 1228 1229 1230 1232 1233 1234 1235 1237 1238 1240 1242 1243 1245 1247 1249 1251 1253 1255 1257 1259 1261 1263 1264 1266 1268 1269 1271 1272 1273 1274 1276 1277 1278 1279 1280 1281 1282 1284 1285 1287 1289 1291 1294 1296 1299 1302 1305 1309 1313 1317 1321 1326 1330 1335 1341 1346 1352 1358 1364 1370 1376 1382 1387 1393 1398 1403 1407 1410 1413 1415 1416 1417 1416 1414 1412 1408 1404 1400 1395 1389 1384 1378 1372 1365 1359 1353 1347 1341 1336 1331 1325 1321 1316 1312 1307 1303 1299 1295 1292 1288 1285 1282 1279 1276 1273 1271 1269 1266 1264 1262 1261 1259 1258 1256 1255 1255 1254 1253 1253 1253 1253 1253 1253 1254 1254 1254 1254 1255 1255 1255 1255 1255 1255 1254 1254 1253 1252 1251 1250 1248 1247 1245 1242 1240 1237 1234 1230 1227 1223 1218 1214 1210 1205 1201 1197 1193 1189 1185 1182 1179 1176 1174 1173 1172 1171 1171 1171 1172 1172 1174 1175 1177 1179 1181 1183 1185 1188 1190 1193 1195 1198 1200 1202 1204 1206 1207 1208 1209 1209 1208 1208 1206 1204 1201 1198 1195 1191 1187 1183 1179 1174 1170 1166 1162 1158 1154 1151 1148 1145 1143 1142 1141 1140 1141 1142 1144 1146 1150 1154 1160 1167 1174 1183 1193 1203 1214 1226 1238 1250 1263 1275 1288 1300 1312 1324 1335 1346 1355 1365 1373 1382 1389 1397 1404 1411 1417 1424 1430 1436 1443 1449 1455 1462 1468 1475 1482 1489 1496 1503 1511 1518 1526 1534 1542 1551 1560 1569 1578 1588 1597 1607 1617 1627 1637 1647 1657 1667 1677 1686 1696 1705 1715 1724 1733 1741 1750 1758 1766 1774 1782 1790 1798 1806 1813 1821 1829 1836 1844 1851 1859 1867 1875 1883 1891 1900 1909 1918 1928 1938 1949 1960 1972 1984 1996 2009 2022 2035 2049 2062 2075 2089 2102 2115 2127 2139 2151 2162 2173 2183 2193 2202 2211 2219 2227 2234 2240 2246 2251 2256 2259 2263 2265 2267 2269 2270 2270 2270 2269 2267 2265 2263 2260 2256 2252 2248 2243 2238 2233 2227 2221 2215 2209 2204 2198 2193 2189 2184 2181 2178 2175 2174 2174 2174 2175
1129 1130 1131 1132 1134 1136 1138 1141 1144 1148 1152 1156 1160 1165 1171 1176 1182 1189 1195 1202 1209 1217 1224 1232 1240 1247 1255 1263 1270 1278 1285 1292 1299 1305 1311 1317 1322 1327 1332 1336 1339 1342 1345 1347 1348 1349 1350 1350 1349 1348 1346 1343 1341 1338 1334 1330 1326 1322 1318 1313 1308 1304 1299 1295 1290 1286 1282 1277 1273 1269 1265 1261 1257 1253 1249 1245 1242 1238 1234 1230 1226 1223 1219 1216 1213 1210 1207 1204 1202 1200 1199 1198 1197 1196 1197 1197 1198 1199 1200 1201 1203 1205 1207 1208 1210 1212 1214 1215 1217 1218 1219 1220 1221 1221 1222 1223 1223 1224 1225 1225 1226 1227 1228 1229 1230 1232 1233 1234 1236 1238 1239 1241 1243 1245 1247 1249 1251 1253 1255 1257 1259 1261 1263 1265 1267 1269 1271 1273 1275 1277 1278 1280 1281 1283 1284 1285 1286 1287 1288 1290 1291 1292 1294 1295 1297 1299 1301 1304 1306 1309 1312 1316 1319 1323 1327 1331 1336 1340 1345 1350 1356 1361 1367 1372 1378 1384 1390 1396 1401 1406 1411 1415 1419 1422 1424 1426 1426 1426 1425 1423 1420 1416 1412 1407 1402 1396 1390 1384 1377 1371 1364 1358 1352 1346 1341 1336 1331 1326 1321 1317 1313 1309 1305 1302 1298 1295 1292 1289 1286 1283 1281 1278 1276 1274 1272 1270 1269 1267 1266 1265 1264 1263 1263 1262 1262 1262 1262 1263 1263 1264 1264 1265 1265 1265 1266 1266 1267 1267 1267 1266 1266 1266 1265 1264 1263 1262 1260 1258 1256 1253 1250 1247 1244 1240 1236 1231 1227 1222 1217 1213 1208 1204 1199 1195 1192 1188 1185 1183 1181 1180 1179 1178 1178 1178 1179 1180 1181 1182 1184 1185 1187 1189 1192 1194 1196 1198 1201 1203 1205 1207 1208 1209 1210 1211 1211 1211 1210 1209 1207 1205 1202 1199 1195 1192 1188 1184 1180 1176 1172 1169 1165 1162 1158 1156 1153 1151 1149 1148 1148 1148 1149 1150 1153 1156 1160 1165 1171 1178 1186 1194 1204 1214 1224 1235 1247 1258 1270 1281 1292 1304 1314 1325 1334 1344 1352 1361 1368 1376 1383 1390 1397 1403 1409 1416 1422 1428 1435 1441 1448 1455 1461 1468 1476 1483 1491 1499 1507 1515 1523 1532 1541 1550 1560 1570 1580 1590 1601 1611 1622 1632 1643 1653 1664 1674 1685 1695 1705 1714 1723 1733 1742 1750 1759 1767 1775 1784 1792 1799 1807 1815 1823 1830 1838 1845 1853 1861 1868 1876 1885 1893 1902 1911 1920 1930 1940 1951 1962 1974 1986 1999 2012 2025 2039 2052 2066 2079 2093 2106 2119 2132 2144 2156 2168 2179 2189 2199 2209 2218 2226 2234 2241 2247 2253 2259 2264 2268 2271 2274 2276 2278 2279 2280 2280 2279 2278 2277 2274 2272 2269 2265 2261 2257 2252 2247 2242 2236 2231 2225 2220 2215 2210 2205 2202 2198 2195 2193 2192 2192 2192 2194
