ncols 80
nrows 76
xllcorner 725952.625
yllcorner 5944384.5
cellsize 100.02265625
NODATA_value -9999                                                                              
125 126 127 129.827438354492 149.238265991211 174.569625854492 176.917327880859 174.759490966797 168 172.808837890625 192.260208129883 200.405227661133 200.759490966797 188.683547973633 162.890884399414 166.390319824219 184.582275390625 189.509536743164 172.470916748047 155.139236450195 159.341766357422 166.253158569336 156.265823364258 140.962020874023 138.367095947266 139.455703735352 149.417724609375 147.379745483398 141.177215576172 131.797470092773 129 131.202529907227 140.311172485352 152.759490966797 166.398818969727 198.658233642578 226.361953735352 255.976440429688 298.598937988281 319.443023681641 329.594940185547 360.135223388672 376.088592529297 388.088592529297 379.265808105469 387.873413085938 383.683074951172 375.493682861328 369.124969482422 369.552795410156 369.772155761719 394.227844238281 418.544311523438 418.641723632813 407.514007568359 424 432.322540283203 464.6708984375 471.967468261719 456.457153320313 433.443023681641 410.655670166016 402.202545166016 361.6708984375 360.088592529297 363.430389404297 381.772155761719 360.696197509766 360.088592529297 354.139251708984 335.888641357422 342.131072998047 343.109130859375 325.83544921875 300.83544921875 273.344024658203 249.83544921875 244.83544921875 225.271591186523 208.848098754883
126 126 128.075942993164 129 144.654708862305 170.415802001953 180.625534057617 180 178.323501586914 177.846496582031 194.468353271484 218.399139404297 214.118087768555 189.131713867188 168.784805297852 173.3095703125 195.343215942383 196.320465087891 174.898727416992 157.83544921875 162.42268371582 174.936233520508 169.006729125977 155.115203857422 156.582275390625 153.860763549805 160.344177246094 163.713668823242 155.304443359375 134.873413085938 129 129.354431152344 139.645568847656 152.506332397461 157.202529907227 179.810928344727 205.987335205078 248.075942993164 281.510803222656 322.078674316406 330.129302978516 354.518981933594 377.897766113281 399.841705322266 400.216003417969 401.894073486328 402.759490966797 400.883178710938 417.497985839844 402.720397949219 419.392395019531 425.973388671875 449.012664794922 450.118743896484 445.129638671875 450.506317138672 459.558258056641 466.158630371094 463.215179443359 454.042938232422 436.635162353516 404.800659179688 390.307800292969 353.178649902344 334.728424072266 335.860443115234 336.696197509766 318.748931884766 335.025329589844 330.949371337891 309.734191894531 310.424774169922 312.481018066406 307.501037597656 292 274.759490966797 253.363403320313 243.658233642578 227.113922119141 207.810119628906
128 129.227844238281 128.924057006836 127.113922119141 136.572982788086 152.658233642578 171.507614135742 185.253158569336 196.050628662109 199.594940185547 214.645568847656 235.297225952148 219.022750854492 194.974685668945 180.437591552734 191.55696105957 203.545104980469 204.729370117188 178.148056030273 157.784805297852 170.772155761719 180.07145690918 172.684020996094 165.582275390625 167.367095947266 165.722640991211 166.205413818359 175.461471557617 160.139236450195 150.73193359375 133.63916015625 128.354431152344 139.873413085938 152.506332397461 154.746841430664 175.127548217773 192.523956298828 228.27848815918 256.405059814453 302.924041748047 328.029632568359 352.113922119141 377.569610595703 398.936706542969 410.722473144531 423.490631103516 425.367095947266 425.200927734375 429.455688476563 426.303649902344 448.860748291016 451.303802490234 474.012664794922 475.367095947266 475.911407470703 475.911407470703 476.300262451172 466.607604980469 459.941192626953 433.658233642578 410.455688476563 385.299957275391 379.316467285156 352.886871337891 324.59814453125 290.665435791016 290.455688476563 297.949371337891 311.474456787109 317.761566162109 301.253173828125 284.778076171875 285.177215576172 284.264526367188 281.734191894531 279.538360595703 265.620880126953 231.620254516602 224.734176635742 198.316452026367
129 134.351867675781 133.399932861328 128.531646728516 141.483413696289 153.671051025391 168.367095947266 193.055923461914 211.012664794922 222.012664794922 233.747161865234 249.521865844727 223.341766357422 202.397048950195 200.93879699707 203.481491088867 210.746841430664 208.803070068359 186.713348388672 167.367095947266 175.101913452148 186.275283813477 181.126586914063 177.42204284668 178.063293457031 177.797470092773 177.788177490234 186.848098754883 179.012664794922 159.338562011719 134.83544921875 128.354431152344 148.075942993164 154.506332397461 171.571060180664 179.368209838867 198.632904052734 208.651824951172 247.873413085938 280.83544921875 306.973388671875 340.924041748047 376.056884765625 402.063293457031 424.393524169922 430.292572021484 448.582275390625 450.386322021484 450.3291015625 451.316467285156 473.822784423828 475.594940185547 480.481018066406 498.506317138672 480.935913085938 480.468353271484 478.83544921875 458.037963867188 454.189880371094 428.355072021484 403.124664306641 378.300109863281 357.184265136719 334.724548339844 323.278961181641 279.189880371094 267.958648681641 262.918609619141 267.987335205078 286.861083984375 280.364837646484 255.493667602539 244.810119628906 271.397857666016 279.683715820313 281.316467285156 269.493682861328 224.551834106445 203.440475463867 182.734176635742
129 136.113922119141 146.367095947266 150.518981933594 153.063293457031 154.303802490234 168.601669311523 193.779998779297 218.034286499023 242.012664794922 252.60758972168 255.886077880859 224.379745483398 203.444961547852 218.101272583008 226.518981933594 220.023239135742 209.113922119141 183.703735351563 170.522994995117 176.886077880859 188.696197509766 198.44367980957 200.1650390625 200.518981933594 192.351699829102 189.898727416992 200.265823364258 193.658233642578 179.012664794922 147.198211669922 130.857559204102 133.365005493164 151.065216064453 192.328948974609 201.026596069336 203.901138305664 222.072418212891 250.506332397461 293.936706542969 322.240509033203 349.640930175781 377.177215576172 403.101257324219 428.203826904297 466.215515136719 474.772155761719 467.103363037109 462.303802490234 474.797454833984 480.828247070313 499.746826171875 500.033020019531 485.16455078125 479.291137695313 468.911407470703 459.013153076172 443.709503173828 433.569610595703 418.832550048828 400.801483154297 358.253173828125 331.8037109375 310.088592529297 305.725677490234 280.455688476563 270.949371337891 234.911392211914 235.063293457031 242.050628662109 259.035400390625 250.215194702148 232.734176635742 248.942642211914 259.291137695313 259.873413085938 255.171279907227 236.244995117188 219.039093017578 195.215194702148
128 141.240829467773 157.467712402344 162.49462890625 171.38102722168 175.583877563477 178.17529296875 187.630661010742 202.648132324219 224.025314331055 247.215194702148 256.582275390625 236.349456787109 224.869247436523 228.565139770508 231.316452026367 215.121459960938 198.696197509766 182.841217041016 184.778244018555 197.329116821289 201.575546264648 234.867813110352 232.195159912109 210.498641967773 203.691558837891 202.050628662109 221.101272583008 208.623931884766 185.39241027832 158.376708984375 150.531646728516 133.394805908203 149.27848815918 196.202529907227 223.125137329102 225.884948730469 247.024520874023 289.506317138672 322.075958251953 347.303802490234 355.569610595703 395.241302490234 414.089721679688 443.609039306641 464.56787109375 478.318542480469 468.518981933594 458.316467285156 478.620239257813 479.452331542969 465.090209960938 463.898742675781 459.599273681641 459.017303466797 462.574584960938 453.043273925781 430.753875732422 407.981414794922 386.841705322266 382.025787353516 363.734191894531 345.260375976563 303.253173828125 281.587097167969 259.822784423828 256.270141601563 238.708862304688 230.075942993164 230.27848815918 234.066177368164 233.832885742188 234.187637329102 253.227844238281 250.482620239258 233.49494934082 233.405059814453 231.682907104492 224.83512878418 202
128.898727416992 137.300277709961 150.274963378906 163.005294799805 175.303802490234 186.831604003906 184.597015380859 186.177215576172 204.697647094727 223.256362915039 245.514022827148 256.582275390625 239.265823364258 229.685943603516 230.620254516602 217.253158569336 192.455703735352 181.726165771484 194.436782836914 202.346252441406 219.364364624023 231.873413085938 250.352828979492 253.296264648438 231.865081787109 241.47444152832 246.569625854492 251.192916870117 216.822784423828 185.113922119141 177 160.455703735352 134.627136230469 149.27848815918 196.202529907227 226.719909667969 256.000335693359 273.924041748047 301.312774658203 327.126586914063 356.594940185547 363.705169677734 382.573455810547 405.531494140625 439.987335205078 455.097900390625 469.354431152344 465.83544921875 456.307800292969 458.635162353516 458.544311523438 435.037963867188 433.721527099609 433.721527099609 433.7529296875 433.987335205078 413.997436523438 405.101257324219 362 341.154632568359 358.240509033203 354.576019287109 331.261169433594 305.212310791016 294.049499511719 252.454406738281 233.974685668945 228.586441040039 211.101272583008 220.72151184082 229.27848815918 230 234.670883178711 255.544296264648 249.949371337891 226.759490966797 216.75212097168 211.59846496582 216.542541503906 202.240509033203
174.177215576172 173.743637084961 163.753082275391 160.759490966797 173.455703735352 193.446395874023 202.44303894043 202.088607788086 210.341445922852 237.130111694336 254.215194702148 255.746841430664 244.911880493164 236.79377746582 219.385513305664 192.313888549805 180.836090087891 178.83544921875 196.518981933594 219.744430541992 236.3916015625 242.299789428711 251.924057006836 255.670883178711 251.228805541992 270.316467285156 277.513702392578 260.544311523438 249.013778686523 227.987335205078 205.726638793945 198.050628662109 159.910110473633 153.830963134766 195.658233642578 226.468353271484 260.683532714844 278.367095947266 300.544311523438 317.4541015625 351.178802490234 365.253173828125 378.556976318359 402.645568847656 446.696197509766 437.033020019531 460.79296875 456.482299804688 435.858825683594 433.493682861328 432.860748291016 409.810119628906 408.493682861328 408.493682861328 409.594940185547 417.734191894531 401.62841796875 361.506317138672 332.075958251953 309.393218994141 310.455688476563 291.9169921875 287.198699951172 283.88671875 276.784820556641 233.296905517578 221.55696105957 209.075942993164 205 207.16455078125 212.819259643555 230.113922119141 234.933822631836 255.544296264648 249.949371337891 225.430221557617 203.667846679688 191.930465698242 185.531646728516 183.493667602539
189.455703735352 189.928695678711 183.016021728516 177.340484619141 178.063293457031 193.329116821289 210.10383605957 221.285690307617 227.27848815918 243.489822387695 256.371246337891 241.898254394531 232.473480224609 218.572509765625 192.786575317383 179.778564453125 193.55696105957 201.177215576172 209.106231689453 217.987335205078 243.008651733398 252.569625854492 284.761413574219 298.741241455078 265.333923339844 273.073699951172 296.303802490234 299.025329589844 281.898742675781 257.160064697266 231.518829345703 210.134429931641 165.063293457031 154.644134521484 177.91796875 204.696197509766 231.189880371094 246.113922119141 261.06201171875 300.944732666016 330.746826171875 354.114562988281 367.873413085938 383.319183349609 427.482940673828 430.955932617188 452.938140869141 444.16455078125 411.417724609375 407.405059814453 388.438537597656 383.334716796875 383.265808105469 383.265808105469 383.810119628906 383.959625244141 361.158935546875 332.278472900391 307.028991699219 281.844085693359 261.886077880859 258.093566894531 255.848098754883 237.783203125 236.689788818359 229.745071411133 228.316452026367 222.853225708008 204.83544921875 203.924057006836 211.063293457031 242.075149536133 249.911392211914 250.192443847656 247.580200195313 215.77294921875 201.429092407227 187.683547973633 177.548950195313 166.544296264648
192 199.08203125 197.177215576172 190.481018066406 190.481018066406 194.159423828125 202.302352905273 219.594940185547 242.506332397461 254.004333496094 242.257965087891 224.066970825195 212.389526367188 192.075942993164 180.287780761719 179.787536621094 189.130432128906 201.936706542969 213.037979125977 224.280242919922 247.182022094727 269.064575195313 313.010589599609 312.379760742188 283.133483886719 295.088287353516 304.487274169922 305.962036132813 286.157836914063 268.987335205078 237.462905883789 210.594940185547 165.063293457031 154.253158569336 157.830963134766 196.314376831055 208.07194519043 227.643005371094 251.81364440918 297.772155761719 335.620239257813 353.446563720703 365.491119384766 378.6708984375 405.225769042969 410.16455078125 449.493682861328 441.797454833984 407.417724609375 383.790252685547 359.531646728516 358.037963867188 358.050628662109 358.050628662109 358.037963867188 356.594940185547 332.278472900391 305.311157226563 263.746826171875 256.3291015625 233.605834960938 233.518981933594 232.845855712891 229.493667602539 230.199813842773 233.585647583008 247.962020874023 226.734176635742 201.712539672852 187.265823364258 209.620254516602 231.924057006836 237.337127685547 254.431823730469 249.44303894043 227.772155761719 221.037979125977 202.582763671875 196.145324707031 174.481018066406
192 210.708862304688 209.367095947266 203.658233642578 203.594940185547 202.695877075195 216.132034301758 229.063293457031 232.689636230469 220.85627746582 208.94873046875 206.924057006836 199.582275390625 171.193237304688 156.873413085938 171.784805297852 194.968597412109 219 234.708862304688 254.370941162109 271.824066162109 279.392395019531 300.707733154297 323.080596923828 308.231384277344 304.406677246094 304.936706542969 295.797454833984 282.683532714844 262.227844238281 218.406982421875 188.132186889648 160.759979248047 155 154.781921386719 178.926300048828 202.195159912109 226.303802490234 269.764465332031 300.83544921875 327.987335205078 351.721527099609 355.873413085938 358.435668945313 380.16455078125 393.708862304688 419.822784423828 423.721038818359 405.969085693359 380.898742675781 355.560180664063 333.755157470703 312.861572265625 312.734191894531 331.821197509766 330.287628173828 306.987335205078 281.668640136719 255.518981933594 243.697479248047 232.405059814453 238.962020874023 230.354431152344 232.841537475586 254.303802490234 270.067443847656 251.692840576172 230.264053344727 218.886077880859 180.189239501953 187.632904052734 207.506332397461 212.481018066406 237.974685668945 254.798110961914 247.283294677734 226.632904052734 213.255569458008 202.113922119141 188.594940185547
192 217.189880371094 228.073867797852 226.327514648438 219.83544921875 221.386642456055 228.465148925781 229.860763549805 223.379745483398 210.257965087891 191.478775024414 182.331680297852 182.696197509766 164.686264038086 152 169.55696105957 188.945037841797 217.670883178711 237.911392211914 258.911407470703 276.141479492188 295.378295898438 319.501190185547 330.51513671875 311.569793701172 304.298187255859 288.222412109375 273.075958251953 260.858825683594 255.272872924805 215.699569702148 167.44303894043 155 154.506332397461 172.760772705078 197.534042358398 222.683547973633 239.073059082031 264.836242675781 282.075958251953 305.265808105469 329.606781005859 333.51611328125 352.025329589844 358.250762939453 380.087310791016 422.400085449219 428 406.886077880859 399.265808105469 357.969085693359 339.419647216797 305.772155761719 293.410522460938 285.642059326172 265.898742675781 261.764465332031 259.954498291016 266.142120361328 274.364837646484 271.132507324219 254.354431152344 252.55696105957 255.518981933594 278.894073486328 285.669921875 255.908660888672 248.595092773438 221.693634033203 180.821670532227 180.283294677734 182.455703735352 189.860763549805 221.484222412109 237.632904052734 254.826950073242 246.466751098633 222.594940185547 203.683547973633 195.569625854492
198.39241027832 206.60758972168 219.995513916016 218.886077880859 211.873413085938 223.746841430664 230.177215576172 215.968109130859 205.323822021484 205.435501098633 190.113922119141 166.088607788086 157.417724609375 154.489822387695 151 169.987335205078 180.630828857422 206.240509033203 227.83544921875 248.83544921875 272.708862304688 297.582275390625 322.797454833984 331.099334716797 312.620239257813 281.327362060547 269.187164306641 258.468353271484 238.214706420898 216.887832641602 206.397048950195 182.797470092773 159.308120727539 154.265823364258 192.83544921875 204.44303894043 225.354431152344 249.430374145508 273.502960205078 270.658233642578 299.417724609375 307.737548828125 317.120971679688 332.126586914063 352.483581542969 368.3291015625 404.837371826172 417.354431152344 405.316467285156 392.873413085938 356.849853515625 332.101257324219 306.136505126953 302.151885986328 280.354431152344 265.110717773438 257.279449462891 276.974670410156 279.117462158203 280.753723144531 283.435028076172 299 299.683532714844 302.407135009766 323.497985839844 317.898742675781 274.891052246094 247.68034362793 207.78352355957 198.329116821289 178.625381469727 173.057998657227 184.351379394531 206.252365112305 213.012664794922 238.050628662109 250.012664794922 226.017150878906 212.936706542969 200.39241027832
182.126586914063 193.01106262207 207.090209960938 206.908981323242 192.613998413086 196.742828369141 196.675689697266 170.949371337891 159.493667602539 174.106719970703 168.734176635742 153.291137695313 151.161514282227 151.318695068359 152.822784423828 171.543014526367 180.430221557617 204.455703735352 226.050628662109 253.31901550293 266.538360595703 293.523162841797 306.068267822266 324.266937255859 312.563049316406 285.258453369141 262.066986083984 239.582275390625 231.559844970703 228.634994506836 210.289855957031 193.759490966797 162.215515136719 154.596054077148 177.331039428711 183.101272583008 203.341766357422 228.506332397461 245.096145629883 255.632904052734 279.658233642578 284.265808105469 304.763824462891 319.177215576172 352.012664794922 367.481018066406 401.227844238281 405.924041748047 384.595428466797 380.8974609375 355.708862304688 330.379760742188 306.126586914063 302.632904052734 275.133941650391 269.702758789063 279.461456298828 302.202545166016 302.873413085938 304.636260986328 324.756927490234 327.873413085938 327.873413085938 328.151580810547 328.646209716797 313.784820556641 272.812377929688 229.031890869141 205.856918334961 201.544296264648 176.462905883789 157.208786010742 164.651184082031 195.359237670898 207.07194519043 220.908187866211 232.344177246094 230.596542358398 217.973876953125 182.063293457031
157.582275390625 169.796188354492 194.697479248047 193.223999023438 180.005126953125 182.009460449219 168.987335205078 153.101272583008 150 154.532760620117 155.709014892578 150.582275390625 148.627944946289 159.679214477539 173.160873413086 179.230895996094 194.503921508789 205.216949462891 220.734176635742 251.72151184082 257.911224365234 257.352813720703 274.229278564453 300.736267089844 306.521697998047 286.987335205078 278.421722412109 258.658233642578 252.784805297852 253.829513549805 233.714950561523 191.162796020508 159.387603759766 155 156.623779296875 176.095504760742 200.635147094727 208.253158569336 246.354431152344 264.291137695313 286.594940185547 301.039886474609 333.672485351563 349.683532714844 364.85498046875 378.110412597656 402.92822265625 405.113922119141 382.253173828125 379.506317138672 356.075958251953 330.746826171875 305.151885986328 284.594940185547 280.034606933594 281.149169921875 303.987335205078 327.430389404297 328.468353271484 330.6708984375 353.341766357422 353.352172851563 353.101257324219 349.896331787109 327.16455078125 300.629211425781 255.075942993164 230.650543212891 225.437423706055 213.310043334961 198.126586914063 172.764617919922 154.996307373047 163.759490966797 187.316452026367 211.617691040039 230.088607788086 230.55696105957 220.582275390625 188.050628662109
149.27848815918 156.567535400391 170.814453125 175.018905639648 167.83544921875 162.544296264648 155.708541870117 149.542373657227 146.27848815918 147.620254516602 148.55696105957 148.162155151367 151.632904052734 169.683547973633 179.869567871094 187.271743774414 200.321105957031 212.756927490234 208.975158691406 224.27848815918 233.189880371094 215.44303894043 226.189880371094 284.905944824219 304.987976074219 301.749725341797 292.325592041016 284.6708984375 280.151885986328 267.430389404297 254.708053588867 195.063293457031 159.354431152344 160.696197509766 156.303802490234 193.126586914063 204.734176635742 223.429260253906 249.174011230469 255.24787902832 259.399780273438 298.487274169922 337.721527099609 354.088592529297 375.354431152344 381.650695800781 412.392395019531 415.594940185547 404.454406738281 402.189880371094 378.316467285156 350.931732177734 307.949371337891 303.050628662109 303.772155761719 305.215179443359 329.718780517578 353.713653564453 373.918273925781 376.76318359375 396.607604980469 386.658233642578 374.025329589844 350.134582519531 317.113922119141 301.059448242188 273.126586914063 249.644927978516 228.250762939453 215.139236450195 200.265823364258 174.624252319336 150.810119628906 162.126586914063 189.377502441406 195.767822265625 206.83544921875 210.240509033203 213.616088867188 194.27848815918
149.240509033203 154.240509033203 155.056243896484 156.088607788086 155.72151184082 152.101272583008 147.481018066406 143.949371337891 141.240509033203 141.582275390625 142.240509033203 145.075942993164 151.367095947266 170.44303894043 179.481018066406 186.430374145508 200.005767822266 205.117294311523 188.341766357422 198.493667602539 206.683547973633 204.337921142578 221.012664794922 251.610000610352 277.261810302734 265.49462890625 258.177215576172 240.974685668945 218.291137695313 210.520904541016 227.23681640625 191.311813354492 160.062164306641 166.797470092773 167.158630371094 180.715270996094 201.228164672852 216.223999023438 211.030609130859 228.45393371582 251.594940185547 278.792175292969 322.894897460938 333.506652832031 355.819580078125 398.975494384766 427.204925537109 429.849212646484 428.556976318359 425.561462402344 381.292114257813 335.354431152344 317.335205078125 329.614166259766 349.645568847656 352.46435546875 361.713989257813 366.92724609375 377.607604980469 376.356201171875 362.481018066406 376.050628662109 355.161193847656 329.361328125 306.620239257813 298.010101318359 258.055450439453 250.759490966797 228.011856079102 212.850830078125 191.689788818359 174.126586914063 150.531646728516 160.046463012695 181.341766357422 180.810119628906 187.179290771484 205.848098754883 200.661758422852 175.202529907227
131.012664794922 132.012664794922 132.012664794922 131.012664794922 143.69075012207 149.645568847656 142.02082824707 138.085403442383 136.202529907227 136.271743774414 136.405059814453 139.704849243164 145.20622253418 153.694915771484 157.012664794922 156.987335205078 174.063293457031 166.877578735352 156.82438659668 173.487899780273 182.012664794922 197.866851806641 205.612243652344 240.911712646484 264.614959716797 259.162139892578 238.478454589844 214.273361206055 206.531646728516 198.615447998047 196.012664794922 183.776321411133 178.202529907227 196.999359130859 201.582275390625 202.522354125977 196.302200317383 204.810119628906 205.594940185547 207.848098754883 229.029159545898 254.354431152344 282.651672363281 344.56640625 357.474273681641 401.303802490234 438.075958251953 450.962036132813 451.7109375 429.974670410156 382.729370117188 354.177368164063 332.260681152344 352.240509033203 366.594940185547 377.030609130859 366.075958251953 357.818145751953 335.458740234375 333.179138183594 331.417724609375 334.594146728516 341.181365966797 326.240509033203 304.772155761719 297.095031738281 252.051910400391 228.202529907227 206.966033935547 202.569625854492 189.297073364258 173.390640258789 148 152.493667602539 164.961547851563 161.354431152344 186.202529907227 205.066009521484 199.189880371094 173.594940185547
117.493667602539 117.493667602539 117.493667602539 117.493667602539 118.99967956543 125.684349060059 131.265823364258 127.227851867676 127.936706542969 128.987335205078 127.329116821289 133.513534545898 142.240509033203 151.151901245117 151.101272583008 149.16455078125 155.136672973633 153.037979125977 153.631469726563 155.447845458984 172.761093139648 189.523635864258 201.368850708008 224.692520141602 241.39241027832 253.02099609375 245.54638671875 231.957855224609 228.795227050781 210.687545776367 204.109115600586 192.974685668945 190.936706542969 202.759490966797 213.078674316406 207.945846557617 224.151901245117 228.750198364258 228.848098754883 228.848098754883 230.629699707031 251.898727416992 278.784820556641 346.493682861328 375.696197509766 421.711578369141 440.616577148438 447.749389648438 443.654388427734 429.579864501953 404.636932373047 379.392395019531 355.135070800781 356.734191894531 378.615936279297 378.571533203125 355.531646728516 352.506317138672 327.780151367188 307.216796875 305.987335205078 308.517547607422 326.949371337891 304.075958251953 281.721527099609 277.568511962891 251.962020874023 224.101272583008 191.83544921875 180.734985351563 166.848098754883 154.619613647461 144.430374145508 147.00048828125 154.658233642578 159.405059814453 180.101272583008 187.290985107422 204.930297851563 196.341766357422
105.379745483398 105.379745483398 105.379745483398 106.25316619873 111.563049316406 119.316452026367 122.481010437012 123.358757019043 125.342254638672 125.784812927246 125.379745483398 128.544296264648 131.253158569336 136.367095947266 140.312454223633 144.265823364258 148.126586914063 150 151.086517333984 154.503601074219 171.736587524414 195.784805297852 219.780319213867 229.620254516602 248.884628295898 255.791061401367 254.757888793945 253.490463256836 254.240509033203 234.658233642578 210.194839477539 197.696197509766 202.177215576172 205.158630371094 215.127700805664 234.970993041992 250.548477172852 253.367095947266 254.240509033203 253.759490966797 243.521392822266 253.728729248047 278.544311523438 345.067443847656 358.603912353516 402.176086425781 430.513061523438 471.229766845703 454.942474365234 432.443023681641 427.607757568359 403.810119628906 379.493682861328 378.38134765625 383.006408691406 375.466918945313 333.269195556641 328.189880371094 305.581970214844 300.544311523438 281.202545166016 283.341766357422 305.423492431641 298.064239501953 259.034118652344 256.447052001953 250.657424926758 226.665283203125 202.344009399414 185.736740112305 156.367095947266 147.60758972168 138.016983032227 131.60758972168 130.822784423828 139.462265014648 170.697967529297 182.015701293945 196.227844238281 196.253158569336
99.0886077880859 100.088607788086 100.164558410645 103.113922119141 109.317253112793 116.451530456543 122.455696105957 124.669120788574 124 124.341773986816 126 129 130 133.493667602539 137.531646728516 143.139236450195 148.60758972168 153.55696105957 154.822784423828 171.632263183594 179.822784423828 181.045349121094 199.352508544922 239.530197143555 271.202545166016 278.645568847656 268.784820556641 261.886077880859 260.721527099609 237.282165527344 210.303802490234 204.822784423828 205.215194702148 214.306686401367 218.493667602539 230.316452026367 250.891525268555 257.139251708984 276.240509033203 280.3291015625 259.830810546875 257.720245361328 279.004180908203 326.283935546875 353.725372314453 400.771667480469 427.800354003906 453.455688476563 454.208618164063 451.113616943359 429.788482666016 402.797454833984 380.303802490234 379.177215576172 378.067779541016 353.637725830078 308.253173828125 283.468353271484 260.233123779297 258.556976318359 256.443023681641 258.113922119141 280.271911621094 279.193084716797 274.063140869141 250.893127441406 230.980453491211 225.407470703125 203.670883178711 191.995666503906 174.324142456055 152.341766357422 139.708862304688 126.97981262207 119.004165649414 134.404266357422 156.977249145508 169.215194702148 180.281845092773 180.44303894043
94.0506362915039 97.0360488891602 100.025314331055 104.012657165527 112.210220336914 120.13924407959 126.405059814453 127.417724609375 125.288414001465 126.949363708496 127 128.417724609375 133.405059814453 135.44303894043 139.481018066406 144.547836303711 148.60758972168 160.531646728516 174.848098754883 186.327667236328 183.379745483398 196.582275390625 211.346099853516 227.461944580078 250.632904052734 268.949371337891 271.000640869141 264.898742675781 257.873413085938 245.387283325195 213.924057006836 205.294830322266 212.544296264648 226.405059814453 230.415634155273 250.341766357422 256.316467285156 295.148864746094 306.009765625 324.431335449219 306.848114013672 303.420593261719 304.81494140625 328.310516357422 354.282501220703 401.023223876953 417.582122802734 429.811889648438 430.345458984375 428.551361083984 414.113922119141 362.085388183594 366.153167724609 356.291778564453 354.098693847656 333.049835205078 327.107513427734 302.865081787109 278.430389404297 256.619781494141 253.571060180664 235.167922973633 250.359710693359 235.341766357422 249.23698425293 226.126586914063 207.303802490234 215.063293457031 205.388244628906 200.436950683594 178.367095947266 162.417724609375 141.012664794922 125.13924407959 105.481010437012 111.493667602539 134.638687133789 146.974685668945 156.215194702148 159.202529907227
96.9873428344727 104.974685668945 111.188911437988 123.289695739746 124.810127258301 126.364685058594 132.215194702148 131.72151184082 129.987335205078 129.987335205078 130.974685668945 133.405059814453 138.44303894043 139.987335205078 142.518981933594 145.569625854492 152.202529907227 154.666397094727 171.135238647461 187.180740356445 200.233932495117 204.782241821289 213.331192016602 244.661437988281 256.048400878906 267.784820556641 272.987335205078 269.961700439453 267.83544921875 258.543029785156 235.227844238281 228.759490966797 220.762222290039 228.012664794922 248.430374145508 273.919891357422 280.387756347656 321.784820556641 350.639953613281 354.955444335938 334.316467285156 332.435974121094 330.513854980469 351.367095947266 378.282653808594 424.300109863281 430.936706542969 429.427642822266 407.29931640625 384.658233642578 380.203826904297 355.393218994141 353.075622558594 331.050628662109 331.277191162109 350.062164306641 339.354431152344 316.493682861328 306.544311523438 277.250122070313 262.750366210938 227.805480957031 207.755004882813 203.12385559082 184.303802490234 182.6396484375 184.088607788086 203.157669067383 202.050628662109 198.561767578125 176.74250793457 164.936706542969 148.329116821289 124.594940185547 104.379745483398 110.240509033203 134.329116821289 153.847137451172 154.012664794922 154.025314331055
98.0506362915039 111.19083404541 124.278480529785 132 131.025314331055 130.025314331055 130 133.240509033203 137.625213623047 141.401062011719 143.430374145508 141.643493652344 142.531646728516 145.050628662109 145.568817138672 147.594940185547 151.658233642578 152.025314331055 154.640930175781 171.209579467773 197.494155883789 206.096145629883 223.046463012695 265.712066650391 281.124328613281 280.1025390625 280.025634765625 279.025329589844 280.128173828125 279.870849609375 260.054168701172 236.198852539063 231.126586914063 230.037811279297 232.16455078125 271.620239257813 300.620239257813 346.506317138672 375.797454833984 380.138763427734 379.240509033203 398.367095947266 363.620239257813 359.461639404297 401.236175537109 448.728881835938 452.506317138672 431.500885009766 406.063293457031 380.83544921875 357.458251953125 342.090209960938 328.924682617188 306.924377441406 307.225280761719 329.025329589844 327.240509033203 303.915557861328 280.506317138672 256.696685791016 250.912841796875 217.451049804688 204.987335205078 191.873413085938 181.64909362793 178.886871337891 175.848098754883 157.810119628906 156.858673095703 156.832397460938 150.548309326172 131.506332397461 130.898727416992 125.08283996582 105.240509033203 106.003845214844 111.357315063477 130.696197509766 129.897766113281 132.924057006836
104 122.987342834473 130.147094726563 133 133 133 131.063293457031 130.265823364258 136.974685668945 149.746841430664 151.303802490234 151.507446289063 155.092132568359 155.063293457031 152.501998901367 153.166473388672 163.355392456055 160.316452026367 156.316452026367 155.974685668945 188.891204833984 220.531646728516 253.508575439453 275.683532714844 297.473968505859 296.338562011719 283.102081298828 279.050628662109 299.189880371094 286.291137695313 260.249328613281 255.327667236328 254.73225402832 234.987335205078 239.182983398438 271.688018798828 299.620239257813 347.380401611328 377.939422607422 401.177215576172 405.868286132813 427.227844238281 427.8857421875 416.200439453125 428.130279541016 451.817016601563 449.059936523438 431.089569091797 407.305236816406 380.844268798828 355.601196289063 332.565612792969 310.568023681641 304.998382568359 303.677124023438 303.315002441406 304.691558837891 292.706604003906 279.367095947266 254.921493530273 233.632904052734 228.13395690918 216.126586914063 205.797470092773 197.253158569336 158.096939086914 155.904663085938 153.911392211914 146.444152832031 141.051910400391 131.341766357422 125.30379486084 122.329116821289 119.305557250977 115.075309753418 112.367088317871 105.893287658691 107.721519470215 113.774559020996 118.620254516602
97.7974700927734 110.810127258301 125.202529907227 132 132.151901245117 133 133.898727416992 134.265823364258 140.506332397461 149.582275390625 154.27848815918 155.101272583008 161.468353271484 160.366455078125 155.617050170898 154 171.354431152344 179.658233642578 179.405059814453 180.60758972168 181.188919067383 198.501525878906 240.286499023438 271.847930908203 294.535339355469 304 286.289855957031 279.149322509766 300.126586914063 287.706451416016 261.213745117188 274.936706542969 261.920532226563 235.518661499023 239.265823364258 254.881423950195 277.532440185547 343.291137695313 395.728424072266 417.148040771484 429.299957275391 449.829681396484 453.506317138672 433.974670410156 431.848114013672 454.468353271484 475.506317138672 436.341766357422 426.752136230469 384.149017333984 360.204925537109 355.677307128906 350.506317138672 305.911407470703 282.848114013672 263.513702392578 299.354278564453 298.683532714844 295.792663574219 272.366119384766 248.676651000977 230.715591430664 227.493667602539 215.276718139648 200.55696105957 165.705657958984 156.646209716797 155.612075805664 152.253158569336 140.543823242188 139.987335205078 130.60758972168 130.202529907227 127.455696105957 120.189872741699 116.288414001465 109.215187072754 105.101264953613 102.873420715332 93.7974700927734
90.582275390625 97.4124374389648 116.415641784668 128.303802490234 128.303802490234 128.469482421875 129.613998413086 129.897766113281 135.729858398438 140.582275390625 149.4326171875 158.417724609375 165.835601806641 176.126586914063 165.367095947266 155.047271728516 174.915405273438 185 188.544296264648 198.785614013672 203.072265625 204.27848815918 224.407470703125 248.997268676758 291.924377441406 300.969085693359 294.291137695313 282.135711669922 299.316467285156 304.950805664063 286.158630371094 290.898101806641 282.311798095703 249.541580200195 243.541732788086 272.582275390625 282.392395019531 341.006896972656 378.012664794922 440.974670410156 453.553283691406 448.077545166016 455.291137695313 454.924041748047 456.131378173828 477.141815185547 489.6708984375 458.7421875 432.759490966797 407.531646728516 404.215179443359 381.287292480469 354.2060546875 309.506317138672 303.032379150391 280.380065917969 258.222869873047 235.650375366211 231.151901245117 208.683547973633 209.417724609375 227.936706542969 226.644287109375 214.936706542969 200.676818847656 172.430374145508 168.625701904297 165.253326416016 153.253158569336 147.898727416992 151.962020874023 141.928375244141 135.658233642578 122.455696105957 120.189872741699 114.291137695313 113.01586151123 107.947280883789 97.0759506225586 94.2784805297852
78.6455688476563 79.6455688476563 86.682746887207 99.0075302124023 105.167762756348 112.025314331055 118.655822753906 125 129.468353271484 128.468353271484 143.059280395508 154.616409301758 162.109115600586 175.303802490234 178.936706542969 169.291137695313 173.791061401367 178.113922119141 179.71061706543 179.822784423828 198.451049804688 213.924057006836 244.346740722656 255.886077880859 292.291137695313 298.983642578125 302.160064697266 287.460174560547 299.482452392578 304.840728759766 306.049987792969 315.531646728516 288.063293457031 260.741058349609 254.707901000977 275.303802490234 302.875183105469 329.210876464844 375.025329589844 423.724884033203 448.601654052734 476.868286132813 480.873413085938 471.086853027344 479.805145263672 491.658233642578 504.632904052734 482.569610595703 457.126586914063 432.7841796875 428.4736328125 403.849548339844 358.160064697266 329.088592529297 305.958343505859 304.651672363281 282.167449951172 255.223999023438 230.468353271484 207.405059814453 206.93798828125 207 207 205.430374145508 205.076263427734 203.303802490234 190.277359008789 176.987335205078 156.61833190918 154.379745483398 153.706130981445 148.506332397461 129.354431152344 124.405059814453 122.189872741699 119.177215576172 114.405059814453 103.151901245117 100.177215576172 103.354431152344
77 78.037971496582 79.801155090332 79.7848129272461 92.2331390380859 103.559844970703 104.403457641602 111.101264953613 115.658226013184 117.643165588379 125.411956787109 143.125305175781 153.908187866211 170.037979125977 171.645095825195 158.645568847656 154.139236450195 154.493347167969 170.308609008789 179.291137695313 204.431503295898 225.361480712891 255.174652099609 275.808197021484 296.860931396484 293.546081542969 302.161834716797 306.291137695313 305.201568603516 305.891693115234 325.417724609375 330.506164550781 291.755157470703 279.337921142578 261.278472900391 275.435516357422 331.344818115234 355.316467285156 399.379760742188 428.962036132813 454.116180419922 497.443023681641 508.510650634766 508.582275390625 506.5771484375 509.506958007813 527.624084472656 509.827117919922 482.607757568359 455.110565185547 430.607604980469 405.379760742188 378.417724609375 332.749572753906 309.972930908203 330.379760742188 324.694274902344 279.113922119141 253.056243896484 232.050628662109 229.674255371094 218.329116821289 215.936706542969 205.430374145508 210.135238647461 225.493667602539 202.683547973633 189.269027709961 175.518981933594 153.518981933594 144.293548583984 133.187789916992 132.075942993164 131.137634277344 124.620254516602 123.645568847656 118.658226013184 107.151901245117 108.792984008789 111.215187072754
77 77.037971496582 78.0759506225586 80 80.4936676025391 79.4936676025391 93.2840881347656 105.481010437012 105.74683380127 110.68563079834 115.620254516602 118.434867858887 141.39241027832 159.859161376953 158.430374145508 148.037979125977 139.886077880859 147.569625854492 154.924057006836 171.537094116211 197.316452026367 222.075942993164 247.088607788086 269.880157470703 277.547180175781 279.177062988281 308.629699707031 328.265808105469 312.822784423828 323.088287353516 340.680816650391 335.126586914063 310.667053222656 286.810913085938 281.518981933594 282.240509033203 342.012664794922 376.341766357422 422.379760742188 451.261016845703 480.655181884766 505.276733398438 546.874694824219 550.827087402344 532.334411621094 547.9091796875 541.442260742188 548.375915527344 506.588043212891 459.76220703125 432.873413085938 407.645568847656 385.423980712891 358.189880371094 336.911071777344 351.306671142578 327.354431152344 279.430389404297 255.393051147461 256.579864501953 254.379745483398 232.632904052734 226.481018066406 208.784805297852 229.004974365234 224.510971069336 201.202529907227 178.189880371094 173.970199584961 153.676010131836 149.331192016602 156.695236206055 156.333114624023 149.645568847656 131.949371337891 134.619766235352 130.253158569336 129.506332397461 126.582275390625 113
77 79 79 79 79 79 88.6202545166016 100.949363708496 104.417724609375 104.417724609375 104.528282165527 118.924049377441 139.27848815918 152.481018066406 154.886077880859 146.305084228516 134.177215576172 129.520904541016 145.611114501953 169.967147827148 196.955291748047 212.869094848633 234.139236450195 241.83544921875 251.126098632813 272.681457519531 317.139251708984 338.734191894531 336.2578125 336.987335205078 353.513854980469 357.215179443359 325.443023681641 308.493682861328 305.662078857422 305.676330566406 346.589324951172 376.83544921875 422.873413085938 452.810119628906 515.606811523438 529.977111816406 549.143249511719 531.088623046875 525.379760742188 527.962036132813 527.544311523438 527.683532714844 506.137329101563 481 457.354431152344 433.081726074219 426.549591064453 393.392395019531 377.634979248047 356.747314453125 333.264709472656 287.807403564453 268.092926025391 281.378936767578 277.189880371094 252.683547973633 229.204452514648 211.227523803711 226.139236450195 205.949371337891 196.717025756836 156.240509033203 155.587249755859 156.032043457031 159.972915649414 179.974685668945 174.620254516602 151.781768798828 140.481018066406 137.151901245117 134.113922119141 133.291137695313 129.113922119141 114
78 80.6582260131836 82.3414535522461 82.2789611816406 80.6582260131836 79.4564971923828 85.0253143310547 91.6950836181641 95.9746856689453 98.6708831787109 102.555358886719 111.533409118652 140.55696105957 156.506332397461 146.215194702148 140.200134277344 133.048065185547 129 140.509216308594 151.83544921875 188.126586914063 202.55696105957 220.202529907227 227.025314331055 246.780960083008 272.696197509766 316.194030761719 329.755157470703 366.704376220703 397.881439208984 388.825836181641 385.240509033203 343.225433349609 329.650848388672 315.714294433594 314.766540527344 348.424621582031 376.569610595703 423.202545166016 452.696197509766 499.379760742188 525.057189941406 527.83544921875 505.386627197266 482.025329589844 498.253173828125 502.858673095703 503.025329589844 504.118896484375 491.886077880859 479.063293457031 455.037963867188 430.151885986328 404.253173828125 383.248504638672 384.591094970703 379.915069580078 356.455688476563 350.059936523438 303.655029296875 278.237457275391 254.192764282227 242.04069519043 232.453125 226.848098754883 203.972442626953 186.128662109375 157.054473876953 159.481018066406 167.60758972168 170.303802490234 180.492385864258 173.924057006836 146.986373901367 140.379745483398 134.822784423828 132.784805297852 130.354431152344 126.455856323242 112.341773986816
80.7341766357422 88.2151870727539 100.301231384277 99.8315963745117 94.1012649536133 87.8987350463867 82.1012649536133 87.8987350463867 93.3037948608398 95.1254577636719 101.13924407959 112.405059814453 140.589492797852 154.772155761719 138.44303894043 128.050155639648 127.754684448242 128.502807617188 138.5673828125 150.532608032227 170.531005859375 177.430374145508 197.686431884766 204.265823364258 240.537094116211 276.127380371094 305.540924072266 322.699554443359 368.352355957031 399.974670410156 421.556976318359 426.634674072266 369.427337646484 334.502014160156 287.468353271484 295.082824707031 340.868927001953 370.531646728516 416.569610595703 446.063293457031 491.367095947266 500.124664306641 499.990539550781 482.565948486328 455.684661865234 451.119537353516 475.438720703125 480.316467285156 499.887847900391 491.138763427734 476.936706542969 455.356506347656 432.620239257813 408.814758300781 411.272552490234 428.694427490234 403.481018066406 380.202545166016 369.558563232422 305.683227539063 280.899688720703 259.569610595703 257.481018066406 251.772155761719 227.259735107422 200.75212097168 178.920043945313 170.389678955078 182.151901245117 182.215194702148 179.834320068359 177.276077270508 173.130264282227 152.42268371582 139.63932800293 129.417724609375 125.130424499512 105.389839172363 104.912673950195 97.1645584106445
90.4050598144531 99.5189895629883 105.374298095703 105.405059814453 105.810127258301 104.810127258301 100.126579284668 94.1392440795898 92.7088623046875 97.6835479736328 102.759490966797 117.69620513916 134.886077880859 138.670883178711 130.974685668945 113.57250213623 113.184265136719 120.645568847656 134.01106262207 144.150772094727 152.708862304688 154.189880371094 190.891998291016 207.163909912109 246.369171142578 294.719757080078 306.005126953125 303.736572265625 359.746185302734 394.528594970703 401.708862304688 402.860748291016 362.392395019531 328.680969238281 265.497680664063 252.676818847656 291.544311523438 327.138275146484 374.253173828125 403.746826171875 446.316467285156 453.202545166016 450.088134765625 469.205749511719 429.026123046875 403.734191894531 441.392395019531 458.621704101563 469.641418457031 473.171447753906 454.034942626953 454.974365234375 456.865570068359 438.481018066406 456.726318359375 454.037963867188 408.012664794922 381.904663085938 352.449127197266 311.565765380859 306.165679931641 292.481018066406 279.632598876953 250.025314331055 225.126586914063 191.847946166992 182.60758972168 184.716232299805 204.974685668945 201.698120117188 181.645568847656 154.819259643555 151.430374145508 145.810119628906 132.960098266602 120.784812927246 122.194358825684 105.075950622559 99.1898727416992 78.5949401855469
95.4430389404297 103.151901245117 108.291137695313 109 111.886077880859 108.169044494629 100.772148132324 97.1772155761719 96.4430389404297 98.6835479736328 102.936706542969 104.789619445801 111.836082458496 109.464828491211 105.202529907227 111.3916015625 118.493667602539 126.97981262207 137.633865356445 144.60758972168 155.184585571289 157.215194702148 190.911392211914 222.070495605469 285.049346923828 305.987335205078 302.676483154297 301.783355712891 341.326385498047 353 369.204132080078 377.648132324219 337.448974609375 286.417724609375 235.569625854492 226.702774047852 251.265823364258 316.113922119141 369.658233642578 398.6708984375 423.706787109375 424.455688476563 409.122100830078 424.251251220703 385.848114013672 359.810119628906 377.021789550781 398.16455078125 404.215179443359 423.126586914063 424.980438232422 451.313720703125 476.862213134766 478.766540527344 478.028198242188 474.202545166016 430 402.075958251953 357.113922119141 341.703582763672 323.59814453125 301.771179199219 289.448150634766 232.056564331055 225.178009033203 197.625213623047 203.759490966797 195.417724609375 204.906585693359 199.632904052734 176.050628662109 150.822784423828 125.383590698242 105.683547973633 104.86075592041 101.966033935547 102.291297912598 101.784812927246 95.9746856689453 73.7848129272461
97.4810104370117 104.614646911621 112.481010437012 115.594940185547 117.481010437012 110.430381774902 101.772148132324 100.127861022949 100.481010437012 100.316612243652 100.197082519531 101.216789245605 103.518989562988 105 105 111.451210021973 125.115043640137 135.107192993164 141.683547973633 149.683547973633 169.229614257813 178.767181396484 194.727935791016 218.647979736328 280.430389404297 302.621215820313 284.151885986328 285.696197509766 315.602478027344 320.736114501953 324.741546630859 347.291137695313 316.128814697266 264.359222412109 214.049835205078 202.240509033203 246.467712402344 295.260864257813 344.987335205078 374 398.151885986328 381.213104248047 395.645568847656 401.481018066406 379.379760742188 354.190673828125 348.830627441406 349.316467285156 371.822784423828 374.160858154297 382.573455810547 425.417724609375 464.367584228516 478.974670410156 466.506317138672 462.979339599609 430.113922119141 402.518981933594 368.730346679688 354 307.734191894531 282.063293457031 256.689483642578 233.342895507813 227.055114746094 209.455703735352 212.012664794922 204.936706542969 202.83544921875 190.658233642578 176.025482177734 153.119689941406 127.912673950195 105.227851867676 99.9493637084961 79.3417739868164 80.037971496582 79.5569610595703 73.7285690307617 54.0379753112793
102.518989562988 108.594940185547 117.153343200684 122.151901245117 122.813011169434 111.759490966797 101.772148132324 103.050636291504 105.361320495605 102.316452026367 99 100 101.455696105957 103.73722076416 105 104.273994445801 118.773277282715 133.069213867188 137.962020874023 139.44303894043 149.086837768555 169.39241027832 179.193084716797 200.41291809082 251.163269042969 276.303802490234 268.493682861328 265.480529785156 274.430389404297 260.318389892578 291.417724609375 319.072570800781 305.023071289063 263.574432373047 211.089401245117 181.373504638672 235.202529907227 273.126586914063 319.759490966797 348.772155761719 371.405059814453 357.947296142578 352.767181396484 369.747467041016 350.594940185547 324.886871337891 303.982543945313 302.529388427734 321.886077880859 329.146606445313 377.732269287109 406.037963867188 450.151885986328 470.316925048828 455.481018066406 452.045989990234 429.8251953125 407.528442382813 384.294982910156 376.430389404297 332.549591064453 309.974365234375 285.101257324219 259.669769287109 237.810119628906 230.291137695313 209.582275390625 208.312454223633 203.052230834961 190.658233642578 178.025314331055 165.645568847656 146.458267211914 108.105590820313 100.369812011719 83.3066787719727 78.2278518676758 72.4810104370117 66.5949401855469 54
105.55696105957 110.518989562988 122.713188171387 130 130 117.333602905273 102.759170532227 109.059448242188 112.485656738281 104.772148132324 101.211502075195 101.974685668945 102 102.493667602539 103 104.569618225098 104.44303894043 120.202529907227 128.645568847656 129.287933349609 138.29850769043 150.722640991211 170.734176635742 212.754043579102 244.732894897461 262.592041015625 258.468353271484 252.73274230957 251.658233642578 251.929824829102 269.719909667969 275.253173828125 267.132507324219 253.858993530273 190.44303894043 158.512420654297 193.388565063477 241.065536499023 293.974670410156 319.856597900391 331.759490966797 345.183624267578 326.050628662109 325.706939697266 304.405059814453 282.936706542969 277.052398681641 273.430389404297 277.091186523438 302.647186279297 371.696197509766 401.392395019531 427.091491699219 428.157501220703 449.772155761719 440.013946533203 427.032531738281 424.227844238281 404.746826171875 387.518981933594 356.43359375 351.645568847656 327.658233642578 302.430389404297 276.405853271484 247.085876464844 222.312927246094 218.924057006836 199.118728637695 184.585968017578 173.582275390625 158.624893188477 142.725357055664 121.126258850098 105.189872741699 99.4010543823242 78.3417739868164 71.6329116821289 64.1139221191406 54
111.594940185547 108.55696105957 118.500885009766 131 125.69620513916 120.328155517578 112.831756591797 120.487419128418 131.291137695313 117.075950622559 108.354431152344 106.287773132324 103 103.088607788086 103.594940185547 103 104 111.74683380127 115.215187072754 124.53052520752 135.329116821289 148 160.72151184082 192.429733276367 219.951446533203 245.126586914063 248.673294067383 230.749237060547 225.55696105957 236.883026123047 245.487899780273 248.07177734375 251.149017333984 231.201248168945 171.86540222168 151.677612304688 172 198.291137695313 260.989593505859 272.784820556641 276.088592529297 294.238250732422 276.481018066406 289.341766357422 270.721527099609 267.383758544922 244.848098754883 225.481018066406 246.109756469727 281.764129638672 347.031890869141 373.050323486328 408.693786621094 403.481018066406 425.561767578125 426.824859619141 405.556976318359 401.430389404297 399.607604980469 376.531646728516 353.531646728516 350.039581298828 323.898742675781 298.6708984375 270.547180175781 224.189880371094 181.088607788086 176.240509033203 174.460342407227 155.594940185547 149.720718383789 126.813652038574 104.854507446289 104.810127258301 105 100.264060974121 84.0886077880859 81.126579284668 65.3417739868164 54.5949363708496
116.265823364258 117.898735046387 125.445602416992 131.632904052734 127.425254821777 127.765739440918 131.815093994141 131.898727416992 133.091018676758 134.039093017578 133.784805297852 115.708862304688 103 108.299789428711 108.101264953613 104.063293457031 103 104.645568847656 105.367088317871 116.25316619873 127.518989562988 140.025314331055 151.610473632813 179.915557861328 201.468353271484 221.614318847656 210.544296264648 202.177215576172 200.329116821289 219.874221801758 245.797470092773 251.746841430664 233.098220825195 205.683547973633 180.323501586914 136.91828918457 147.172729492188 171.810119628906 218.204452514648 227.050628662109 247.797470092773 251.455703735352 229.218399047852 221.738662719727 203.354431152344 196.72151184082 178.050628662109 176.585327148438 201.466598510742 263.948394775391 313.632110595703 328.050628662109 364.686920166016 368.582275390625 396.323181152344 410.537078857422 399.83544921875 378.199645996094 371.265808105469 359.519317626953 341.455688476563 336.518981933594 303.531646728516 278.012664794922 252.784805297852 223.551681518555 175.683547973633 157.022598266602 163.150451660156 148.974685668945 140.44303894043 132.630508422852 107.063293457031 106.349464416504 105 105.536773681641 106.531646728516 98.1366806030273 69.3670883178711 60
123.341773986816 126.734336853027 130.721832275391 138.354431152344 138.379745483398 139.796661376953 144.012664794922 144.012664794922 151.127868652344 157.341766357422 150.493667602539 121.25316619873 105.797470092773 111.329116821289 114.13924407959 108.14949798584 103.392402648926 104 105 115.886077880859 126.518989562988 146.249801635742 152.658233642578 170.227844238281 191.249313354492 197.962020874023 199.307968139648 181.194198608398 174.430374145508 194.683547973633 217.471405029297 222.265823364258 213.1748046875 186.301712036133 159.582275390625 126.354431152344 126.784812927246 150.898727416992 189.728576660156 196.753082275391 218.215194702148 221.506332397461 199.183944702148 178.222076416016 175.082992553711 157.481018066406 153.987335205078 154.41259765625 178.688507080078 205.485824584961 253.726165771484 297.531646728516 301.308135986328 303.730010986328 345.598937988281 366.502471923828 370.451995849609 357.645568847656 322.6708984375 320.788024902344 317.79443359375 318.921173095703 294.860748291016 273.554412841797 248.734176635742 217.759490966797 164.10334777832 151.101272583008 147.316452026367 129.001602172852 125.645568847656 126.06201171875 119.771026611328 116.468353271484 108.075149536133 110.810768127441 111.734657287598 90.0249938964844 53.4935111999512 61
132.126586914063 132.137634277344 136.936706542969 151.629867553711 161.670883178711 158.140518188477 154 156.794586181641 164.746841430664 167.367095947266 159.569625854492 133.536605834961 118.126579284668 120.620254516602 121.262939453125 112.013938903809 105.708862304688 105 104.683547973633 115.886077880859 127.518989562988 137.118255615234 139.873413085938 158.113922119141 156.695724487305 162.976760864258 166.177215576172 156.822784423828 153.708862304688 166.983016967773 170.784805297852 170.784805297852 170.722152709961 171.331359863281 154.417724609375 120.898735046387 114.974685668945 144.712860107422 150.886077880859 152.708862304688 172.77294921875 175.610000610352 155.772155761719 150.746841430664 152.359878540039 152.667037963867 146.544296264648 149.910751342773 178.530685424805 200.539169311523 248.341766357422 273.829681396484 271.220489501953 272.274810791016 299.430389404297 302.328643798828 324.671997070313 323.139251708984 281.443023681641 273.026123046875 253.549438476563 267.860748291016 250.723434448242 242.139236450195 213.910110473633 190.005767822266 147.911392211914 129.493667602539 127.99503326416 123.661590576172 105.873420715332 116.962028503418 126.128021240234 127.711906433105 119.518989562988 123.455696105957 100.60279083252 77.6582260131836 54.0759506225586 61
143.493667602539 145.202529907227 144.316452026367 164.405059814453 190.44303894043 175.27848815918 160.796020507813 178.329116821289 190.988296508789 177.603424072266 162.354431152344 139.92854309082 132.036529541016 133.365493774414 132.240509033203 122.789779663086 109.177215576172 105 104.683547973633 115.13924407959 125.833038330078 128.506332397461 129.130264282227 146.094543457031 146.772155761719 157.253158569336 162.506332397461 150.177215576172 150.759490966797 132.785125732422 125.243232727051 125.025314331055 125.025314331055 125.025314331055 125.407302856445 108.189872741699 104.713188171387 121.988624572754 125.631149291992 133.85595703125 143.822784423828 144.89697265625 135.93798828125 126.13924407959 137.85546875 139.759490966797 140.506332397461 150.151901245117 173.949371337891 181.84538269043 225.126266479492 247.39241027832 231.113922119141 228.120330810547 267.949523925781 272.294036865234 299.405059814453 307.072265625 279.379760742188 253.569625854492 230.558731079102 228.029479980469 225.594940185547 199.9892578125 160.531646728516 151.552322387695 130.378143310547 127.504890441895 114.742347717285 108.784812927246 94.5210723876953 100.265823364258 104.991348266602 125.166000366211 122.635475158691 116.315971374512 101.958503723145 90.1331481933594 53.1898727416992 60.2531661987305
150.784805297852 157.354431152344 154.784805297852 166.988143920898 195.815414428711 194.784805297852 194.506332397461 222.721038818359 238.213104248047 206.050628662109 175.486785888672 150.479736328125 152.537887573242 147.71110534668 138.847625732422 124.704856872559 108.784812927246 106.291458129883 105.248359680176 109.873420715332 116.189872741699 121.012657165527 126.886077880859 136.365173339844 137.734176635742 148.44303894043 152.658233642578 148.759490966797 145.44303894043 125.063293457031 112.105911254883 106.037971496582 103.645568847656 103.645568847656 103.645568847656 105 105 102.732734680176 102.86075592041 103.341773986816 103.453453063965 103.86075592041 103.86075592041 104.199485778809 122.759490966797 125.075950622559 124.877265930176 130 149.189712524414 179.776794433594 213.699722290039 224.214233398438 224.891525268555 207.455703735352 224.60758972168 233.373504638672 272.797454833984 274.506317138672 273.063293457031 248.632904052734 224.464996337891 210.405059814453 208.290817260742 196.72151184082 168.708862304688 147.532608032227 130.493667602539 126.278480529785 103.30379486084 89.5696182250977 79.7721481323242 79.4303817749023 83.5250778198242 104.924049377441 122.911392211914 115.987342834473 89.5814743041992 74.5353317260742 54.0759506225586 58
155.822784423828 165.822784423828 163.264221191406 173.640441894531 204.808517456055 218.312454223633 214.091018676758 237.866363525391 254.623458862305 224.296585083008 188.544296264648 182.396255493164 183.811889648438 151.544296264648 131.302352905273 120.721519470215 109.107513427734 114.582275390625 112.980133056641 108.468353271484 112.539657592773 120.417724609375 124.970840454102 129.050628662109 129.192916870117 140.62922668457 146.820541381836 153.852584838867 155.696197509766 137.962020874023 130.506332397461 111.759490966797 101.784812927246 98 96.1772155761719 101.131546020508 101.987342834473 91.7215194702148 91.7974700927734 96.6582260131836 98.1772155761719 99.1772155761719 101 102.520751953125 104.296104431152 104.354431152344 105.05640411377 122.987182617188 129 167.177856445313 188.336486816406 194.063293457031 194.92854309082 197.240509033203 200.53532409668 225.506332397461 249.420608520508 255.177215576172 253.16455078125 228.338409423828 198.113922119141 179.638366699219 174.709335327148 167.708862304688 125.69620513916 124.240509033203 124.886077880859 121.612403869629 101.92212677002 90.6495742797852 82.9873428344727 84.5410995483398 79.3959274291992 81.0759506225586 88.852424621582 89.5838775634766 86.582275390625 74.3797454833984 54.0759506225586 57
164.582275390625 170.582275390625 183.0927734375 199.939910888672 217.924057006836 244.024200439453 259.328948974609 258.883178710938 240.455703735352 214.180252075195 195.058807373047 199.951766967773 190.734344482422 163.898727416992 138.744918823242 120.582275390625 115.806121826172 121.012657165527 129.898254394531 126.13924407959 122.721519470215 129.316452026367 131.72151184082 132.594940185547 131.72151184082 149.506332397461 154.873413085938 155 154.936706542969 142.83544921875 132.582275390625 115.291137695313 106.569618225098 97.6329116821289 91.8480987548828 89.1344299316406 89.0506362915039 81.3291168212891 85.1645584106445 92.0342864990234 95.5189895629883 97.5569610595703 101.455696105957 104.632911682129 106.814933776855 105.250602722168 104.782089233398 109.506332397461 116.760131835938 126.537574768066 129.734176635742 152.379745483398 154.670883178711 169.16455078125 180.531646728516 204.810119628906 230.055603027344 249.025314331055 247.886077880859 221.46467590332 186.228652954102 177.417724609375 154.924057006836 149 111.370452880859 109.25316619873 103.842651367188 102.329116821289 96.9770889282227 95.6351547241211 96.8987350463867 100.337448120117 78.7974700927734 76.7721481323242 79.1392440795898 78.2784805297852 77.5157852172852 72.45361328125 54.0759506225586 56
183.493667602539 181.696197509766 197.09358215332 214.394653320313 226.828231811523 248.822784423828 273.529388427734 267.064880371094 243.247711181641 223.481018066406 224.88703918457 215.915725708008 187.058807373047 162.684188842773 138.810119628906 125.329116821289 123.69620513916 129.632904052734 138.265823364258 137.873413085938 133.594940185547 137.39241027832 138.962020874023 143.44303894043 144.696197509766 152.741714477539 155 155 153.91780090332 132.797470092773 125.140686035156 107.736259460449 104.784812927246 98.1392440795898 92.4050598144531 86.9367065429688 80.6700820922852 78 79.4878997802734 90.4430389404297 97.8841552734375 100.455696105957 104.594940185547 110.796669006348 118.333763122559 109.35026550293 110.759811401367 132.725036621094 122.311164855957 124.634353637695 133.40266418457 159.177215576172 161.468353271484 184.506332397461 186.746841430664 211.034286499023 230.038131713867 230.101272583008 228.291137695313 210.532608032227 203.405059814453 178.683547973633 158.44303894043 151.645568847656 125.385353088379 121.329116821289 102.442398071289 105.050636291504 100.962028503418 109.532127380371 104.898735046387 100.518989562988 77.8987350463867 75.1012649536133 74.1012649536133 72.2531661987305 69.1128005981445 63.3291130065918 55.0379753112793 56
197.936706542969 188.101272583008 206.886077880859 236.716064453125 247.395446777344 263.455688476563 276.025329589844 267.105590820313 259.639495849609 257.746826171875 241.239227294922 216.821670532227 184.316452026367 160.487747192383 139.746841430664 130.873413085938 136.088607788086 140.518981933594 147.113922119141 156.172241210938 148.772155761719 145.810119628906 145.873413085938 151.683547973633 154.936706542969 155 155 153.014266967773 142.873413085938 119.683547973633 106.708862304688 101.988784790039 104.215187072754 106.173851013184 106.854988098145 101.13924407959 83.5316467285156 78 78.4430389404297 89.9240493774414 103.524116516113 105.521713256836 108.063293457031 128.037979125977 135.012664794922 121.665115356445 129.908020019531 152.241470336914 137.39241027832 133.662078857422 145.398651123047 172.746841430664 180.886077880859 204.897933959961 211.825988769531 229.884628295898 224.316452026367 224.316452026367 224.303634643555 223.16455078125 203.068252563477 174.670883178711 163.417724609375 143.759979248047 105.835441589355 110.282485961914 113.708862304688 128.196929931641 121.113922119141 131.15446472168 105.341773986816 99.5189895629883 75.780647277832 73.1645584106445 70.0632934570313 68.2151870727539 63.2332954406738 59.2784805297852 55 57
189.075942993164 174.101272583008 186.683547973633 200.265823364258 216.160705566406 240.865570068359 249.151901245117 260.506317138672 267.485992431641 259.974670410156 240.341766357422 222.746841430664 194.417724609375 164.037979125977 146.340972900391 141.479248046875 142.939437866211 146.240509033203 163.341766357422 170.924057006836 163.614166259766 156.369491577148 150.16455078125 152.746841430664 155 155 155.962341308594 142.950012207031 131.859161376953 110.518989562988 105 105 110.108474731445 113.936866760254 113.101264953613 90.2954635620117 80.6329116821289 76.5949401855469 77.8860778808594 87.4936676025391 97.6333923339844 103.150459289551 113.415321350098 129.16455078125 147.39241027832 132.146606445313 136.120330810547 158.797470092773 158.425888061523 146.202529907227 153.794906616211 160.799072265625 179.848098754883 209.987335205078 230.001281738281 225.696197509766 204.674087524414 198.991500854492 199.151901245117 199.39241027832 194.594940185547 155.476364135742 146.708862304688 127.068740844727 114.178977966309 135.784805297852 133.379913330078 133.177215576172 150.189880371094 142.693161010742 107.333122253418 101.197563171387 83.1898727416992 79.4050598144531 68.1898727416992 65.1772155761719 58.1421241760254 55 55 58
168.949371337891 156.848098754883 159.275604248047 175.306686401367 205.582275390625 224.921646118164 226.180099487305 225.971313476563 239.07209777832 250.932388305664 234.270629882813 219.106552124023 193.429260253906 167.069534301758 160.60758972168 162.075942993164 153.820068359375 151.92854309082 176.523635864258 189.110397338867 188.332153320313 168.493667602539 158.088607788086 160.837051391602 157.116165161133 155 150.962341308594 132.823104858398 126.898735046387 109.582275390625 104.13924407959 108.597183227539 126.655502319336 123.518989562988 117.430381774902 107.692039489746 84.1645584106445 77 77 79.4810104370117 79.5189895629883 94.2278518676758 104.372215270996 121.464988708496 123.590766906738 132.857070922852 154.493667602539 178.364364624023 175.405059814453 162.491912841797 161.873413085938 181.797470092773 188.949371337891 228.063125610352 228.910110473633 213.797470092773 203.379745483398 180.504241943359 175.956893920898 173.914443969727 174.126586914063 153.105270385742 132.324630737305 130.004974365234 136.189880371094 153.538375854492 136.930297851563 125.38663482666 129.994705200195 127.759490966797 115.025314331055 102.920204162598 92.2784805297852 83.9045028686523 63.3417739868164 59.2892150878906 55 55 55 57.9873428344727
148.696197509766 144.634826660156 129.485977172852 134.60758972168 173.199813842773 196.753402709961 205.306045532227 209.227844238281 213.339050292969 217.341766357422 205.633392333984 198.696197509766 186.615768432617 183.708541870117 187.327514648438 182.933181762695 167.155578613281 158.967315673828 190.601669311523 217.302352905273 213.152374267578 193.306198120117 182.324783325195 177.006408691406 157.324630737305 153.994873046875 135.100631713867 124.075950622559 118.98413848877 110.954490661621 109.721519470215 131.240509033203 134.016189575195 130.544296264648 120.79955291748 104.565612792969 85.651496887207 78.6455688476563 77 79.4810104370117 82.1129608154297 94.1996459960938 102.493667602539 102.949363708496 104.598945617676 135.860763549805 148.936706542969 172.405059814453 184.754211425781 187.34033203125 187.354431152344 195.075942993164 205.900009155273 229.012023925781 222.491104125977 201.704376220703 197.189880371094 176.983016967773 163.250762939453 155.468841552734 162.583724975586 154.016021728516 141.341766357422 134.121139526367 143.24755859375 146.365493774414 126.430702209473 105.932220458984 124.44303894043 125.278480529785 115.025314331055 103.607597351074 93.7974700927734 79.5327682495117 54.5600051879883 55 55 55 55 57
123.379745483398 124.468353271484 109.936706542969 106.762054443359 125.239707946777 152.046310424805 171.242904663086 173.137481689453 173.379745483398 172.468353271484 173.379745483398 172.468353271484 176.270629882813 195.499435424805 210.844573974609 200.050308227539 188.778396606445 185.588851928711 202.693481445313 225.087966918945 224.966033935547 211.005294799805 182.902572631836 159.229293823242 147.346572875977 152.898727416992 141.504089355469 132.037979125977 124.967636108398 123.278480529785 134.100952148438 152.51594543457 142.942962646484 132.174331665039 117.835441589355 99.8607559204102 89.1446914672852 79.5063323974609 77.0392532348633 82.1392440795898 89.1692047119141 95.1531829833984 97 100 101.341773986816 120.392402648926 129.471237182617 147.126739501953 172.154937744141 197.632904052734 204.889755249023 208.202529907227 208.240509033203 221.444152832031 204.658233642578 186.645568847656 179.405059814453 163.255081176758 155.726806640625 155 155 153.800186157227 149.177215576172 144.927261352539 136.063125610352 123.911392211914 118.936706542969 93.1012649536133 103.645568847656 117.531646728516 113.594940185547 103.669281005859 95.1754531860352 74.5747451782227 54.3797454833984 55 55 55 55.9620246887207 61.2658233642578
100.620254516602 98.1139221191406 83.7848129272461 71.2278518676758 73.8359222412109 99.3835906982422 135.48454284668 148.848098754883 143.353469848633 142.524276733398 146.415161132813 148.837692260742 168.596374511719 196.024520874023 227.02067565918 240.569625854492 216.491744995117 208.960906982422 224.751007080078 232.126586914063 227.035568237305 206.531646728516 166.265823364258 158.347702026367 161.644134521484 161.759490966797 158.142440795898 135.750045776367 132.316452026367 132.569458007813 148.146926879883 149.708862304688 130.632904052734 126.367088317871 113.619132995605 106.341773986816 84.1645584106445 77 77.4430389404297 86.1289825439453 92.4580993652344 99.2965850830078 99.2531661987305 101.679374694824 102 104.291137695313 121.227851867676 129.51513671875 153.759490966797 178.286178588867 203.493667602539 219.371734619141 217.303802490234 204.987335205078 203.746841430664 180.596374511719 171.750198364258 154.83544921875 155 155 154.873413085938 156.902893066406 168.271591186523 145.228805541992 120.712707519531 102.278480529785 98.5949401855469 80.9310989379883 90.8019561767578 104.306358337402 109.171928405762 105 101.156227111816 77.9458389282227 56.8227844238281 55 55 55 57.9240493774414 70
89.8354415893555 77.7912216186523 64.455696105957 52.1139259338379 67.8987350463867 88.1198501586914 114.342254638672 131.734176635742 114.177215576172 108.354431152344 120.645568847656 132.759490966797 159.912353515625 183.82487487793 219.040222167969 241.195007324219 217.401214599609 216.627944946289 230.427490234375 237.931900024414 215.240509033203 184.886077880859 165.262298583984 180.101272583008 192.706939697266 190.227523803711 169.063293457031 141.886077880859 143.5673828125 145.641571044922 141.9794921875 132.291137695313 116.86075592041 114.793785095215 103.632911682129 98.4085845947266 83.3233489990234 77.097900390625 76.9270935058594 79.3956069946289 93.5696182250977 103.721519470215 105.097900390625 111.559844970703 111.987342834473 111.987342834473 111.358116149902 128.615127563477 147.126586914063 178.698608398438 204.244506835938 224.326873779297 220.881912231445 211.972595214844 203.746841430664 179.379745483398 155.603103637695 157.658233642578 157.460342407227 155.444641113281 162.033172607422 164.465469360352 175.037979125977 133.391128540039 104.278480529785 96.5316467285156 91.9061050415039 80.455696105957 79.9312591552734 83.3789443969727 101.931098937988 105 102.531646728516 89.203010559082 69.6388397216797 55.0373344421387 55 55 58.8860740661621 72.4936676025391
85.7974700927734 74.8783874511719 60.6962013244629 52.7974700927734 67.0632934570313 90.2648620605469 112.151901245117 124.518989562988 110.428619384766 97.9181213378906 106.583236694336 118.273834228516 137.882385253906 146.784805297852 161.974685668945 183.794586181641 195.828399658203 196.582275390625 229.960418701172 249.715744018555 229.054473876953 206.414672851563 190.285217285156 204.430053710938 232.868133544922 220.579879760742 188.296264648438 165.739303588867 162.215194702148 156.878219604492 141.009780883789 128.683547973633 107.734176635742 108.797470092773 95.4007339477539 81.3417739868164 78.925651550293 76.9179611206055 76 78.3379287719727 101.594940185547 105 105.189872741699 128.292739868164 134.27848815918 138.126586914063 137.266464233398 136.386795043945 137.481018066406 177.496551513672 203.473159790039 220.341613769531 229.594940185547 229.149337768555 204.696197509766 179.468353271484 160.430694580078 169.974685668945 169.405059814453 160.280410766602 177.151901245117 179.316452026367 178.067459106445 150.414199829102 105.050636291504 99.8418502807617 93.1898727416992 82.8607559204102 79.9200439453125 75.1022262573242 90.2978668212891 101.088607788086 99.6582260131836 93.2278518676758 81.4931869506836 54.455696105957 55 55 60.8101272583008 82.4050598144531
79.037971496582 67.6926803588867 58.233455657959 52 65.4303817749023 76.037971496582 87.1645584106445 97.7588500976563 92.1996459960938 82.6580657958984 91.9466400146484 103.277679443359 115.337768554688 122.316452026367 132.997436523438 138.632904052734 160.209426879883 175.724884033203 230.670883178711 268.097595214844 266.106719970703 264.683532714844 231.781600952148 231.984939575195 254.232498168945 244.77311706543 198.60758972168 192.702285766602 190.655670166016 168.950332641602 136.232330322266 115.704216003418 100.925170898438 101.518989562988 93.8860778808594 82.0126571655273 77.3924026489258 74.7594909667969 74.7594909667969 75.8372039794922 97.3544311523438 104.316452026367 105.287292480469 120.329116821289 137.373336791992 147.924057006836 162.921005249023 171.100143432617 171.81477355957 187.02082824707 211.83544921875 229.987335205078 253.189880371094 230.161514282227 204.684020996094 180.645568847656 171.974685668945 181.605987548828 180.884155273438 172.779357910156 170.790100097656 161.227844238281 170.003372192383 143.429260253906 106.278480529785 101.582275390625 92.8782272338867 81.3627624511719 74.5838775634766 58 77.7530822753906 87.9746856689453 88.4550552368164 88.5189895629883 79.5140228271484 54.4191627502441 55 55 59.6167297363281 81.037971496582
61.8860740661621 53.7700691223145 53.9240493774414 52.3606796264648 57.8564338684082 62.9389533996582 67.2276916503906 71.3291168212891 72.0506362915039 74.0445404052734 83.3037948608398 93.9065856933594 97.0506362915039 99.1012649536133 101.164558410645 101.171287536621 135.620254516602 169.873413085938 230.670883178711 273.3291015625 286.296417236328 286.372863769531 269.447845458984 262.6708984375 268.936706542969 265.808685302734 230.208145141602 231.707412719727 219.227844238281 187.338882446289 146.038772583008 116.784812927246 102.345138549805 99.3037948608398 88.4885406494141 79.3924026489258 75.8977737426758 73.4292602539063 73 74.962028503418 90.0759506225586 103.392402648926 101.569618225098 104.265823364258 120.104309082031 126.721519470215 162.014419555664 189.367095947266 201.71142578125 206.582275390625 229.493667602539 232.55696105957 245.310852050781 226.101272583008 204.710296630859 184.658233642578 183.55696105957 183.72151184082 183 182.414031982422 168.178817749023 131.228805541992 136.483581542969 120.197883605957 99.7341766357422 87.8607559204102 83.417724609375 67.9370269775391 60.1621551513672 55.8942489624023 65.1392440795898 74.8860778808594 72.1246566772461 72.5441436767578 72.3752593994141 57.1392402648926 55.0317268371582 55 58.8860740661621 72.5569610595703
52 53.7215194702148 54 53 52.6835441589355 53.1297874450684 53.6835441589355 53.6835441589355 53.6835441589355 60.500560760498 71.8101272583008 76.1828231811523 78.1392440795898 84.037971496582 94.7668609619141 106.724563598633 144.797470092773 178.976440429688 232.820541381836 278.773101806641 301.342254638672 296.810119628906 289.694763183594 288.215179443359 287.610321044922 288.898742675781 270.2998046875 250.156539916992 234.620254516602 203.317260742188 170.373657226563 142.779357910156 110.957221984863 104.573783874512 82.2531661987305 77 75 72.5949401855469 70.6835479736328 72.4933471679688 83.9746856689453 93.1392440795898 95.5047302246094 99.4832534790039 103.354431152344 111.151901245117 127.021148681641 151.713668823242 185.372543334961 204.987335205078 228.493667602539 238 225.126586914063 212.700210571289 204.914764404297 197.060562133789 189.746841430664 180.670883178711 175.78401184082 169.582275390625 145.430374145508 120.202529907227 100.025314331055 95.4406356811523 85.8987350463867 70.3670883178711 74.7005310058594 64.9113922119141 56.8663673400879 55 56.3417739868164 60.8785438537598 54.2658233642578 56.2999534606934 62.8607597351074 60.6228179931641 55.1139259338379 55 60.4936714172363 81
52 52.0245170593262 52.9730796813965 51.6455688476563 51.6455688476563 51.6455688476563 51.7263259887695 52 52.3037986755371 56.3291130065918 64.159912109375 71.3379287719727 77.455696105957 87.0967788696289 105.493667602539 128.746200561523 172.164398193359 199.06233215332 237.773910522461 285.263244628906 309.326538085938 309.240509033203 308.205261230469 311.910278320313 320.101745605469 317.30908203125 289.451995849609 268.008972167969 245.496551513672 234.202529907227 198.78352355957 176.075469970703 125.315811157227 105.758369445801 91.4595413208008 85.0886077880859 77.8445739746094 73.9493637084961 66.9165191650391 65.6455688476563 69.1645584106445 74.2227172851563 101.185546875 105.059768676758 116.673606872559 122.025314331055 144.570739746094 169.962020874023 186.480529785156 203.908828735352 228.356506347656 244 221.83544921875 213.096786499023 205.249954223633 197.050628662109 185.037979125977 175.797470092773 162.886077880859 152.386474609375 120.202529907227 99.6708831787109 86.873420715332 75.4052200317383 70.0126571655273 62.4050636291504 66.2911376953125 63.2941818237305 60.8354415893555 55 55 55 55 55 55 55 55 56.5790748596191 69.2776794433594 89.417724609375
50.607593536377 51.607593536377 51.5316467285156 50.607593536377 50.607593536377 51 51.2278480529785 53.5539169311523 53 54 62.1392402648926 75.2531661987305 81.5712203979492 102.055603027344 124.550392150879 151.573623657227 191.383911132813 216.190200805664 243.509368896484 271.050628662109 315.873413085938 338.680023193359 333.353149414063 332.758544921875 351.895538330078 339.746826171875 292.16455078125 273.569610595703 245.848098754883 225.04150390625 202.611602783203 198.506332397461 152.810287475586 118.481010437012 107.36644744873 91.0987014770508 81.2658233642578 74.5949401855469 65.7215194702148 62.2922592163086 62.8227844238281 71.4303817749023 101.772148132324 121.080757141113 129.810119628906 147.493347167969 187.423492431641 209.793304443359 214.892486572266 222.683547973633 238.280242919922 253.290664672852 239.445755004883 228.914123535156 196.271270751953 171.610794067383 170.216156005859 154.139236450195 146.768630981445 134.796340942383 104.329116821289 86.7492370605469 74.3670883178711 61.7995529174805 54.8311157226563 55.4683532714844 59.7215194702148 58.9383125305176 60.025318145752 55 55 55 55 55 55 55 55.8860740661621 63.8734169006348 86.7721481323242 103.784812927246
48.5696220397949 49.0216293334961 49.5696220397949 49.61865234375 50 51 52.2278480529785 54.2658233642578 53.6962013244629 54 60.8722953796387 75.0025634765625 83.0887680053711 103.247718811035 122.720558166504 161.729537963867 202.02099609375 248.759490966797 264.645568847656 273.277679443359 308.169036865234 342.773590087891 352.708862304688 349.059448242188 347.304290771484 328.341766357422 289.705169677734 267.010894775391 223.949371337891 206.082992553711 181.183944702148 163.758850097656 142.776153564453 124.509056091309 100.670883178711 82.582275390625 78.5696182250977 73.4206085205078 63.1139259338379 58.8652458190918 55 54.9881439208984 91.3515472412109 96.626823425293 103.440635681152 128.658233642578 191.412750244141 205.341766357422 222.708541870117 247.012664794922 256.285522460938 255.466430664063 255.470123291016 237.424926757813 180.113922119141 154.265655517578 143.965866088867 128.334243774414 119.694763183594 102.98509979248 92.2844085693359 75.126579284668 61.7981109619141 55.3460998535156 55 55 55 55.3100471496582 56.9873428344727 55 55 56 56 56 56 55 57.7721519470215 70.2025299072266 85.8101272583008 106
47 48.0379753112793 49 49.1139259338379 50.1518974304199 52.0889282226563 52.5894889831543 56.1245002746582 62.1579856872559 64.118408203125 64.0993423461914 77.0253143310547 86.0108947753906 114.866691589355 134.966354370117 169.518020629883 215.127059936523 264.580841064453 284.788482666016 286.6796875 297.894897460938 334.190032958984 349.950500488281 348.713500976563 335.933197021484 315.129791259766 290.481018066406 283.341766357422 242.74250793457 210.291137695313 171.670883178711 139.21662902832 112.544303894043 105.096618652344 83.544303894043 78.5316467285156 74.1645584106445 70.5949401855469 62.8178176879883 57.9873428344727 55.225284576416 54.8530693054199 68.7593307495117 74.688835144043 102.367088317871 129.098388671875 158.097900390625 162.063766479492 185.493667602539 219.149978637695 237.490463256836 246.53564453125 247.189880371094 244.524108886719 191.378143310547 163.658233642578 139.55696105957 132.34065246582 104.50008392334 97.1519012451172 73.3126068115234 68.5189895629883 57.1139259338379 55 55 55 55 55 55 55 55 56 56 56 56 55 56.4177207946777 66.7239227294922 86.2606964111328 106
46 48.5250778198242 50 50.1139259338379 51.1518974304199 54.0961380004883 53.7721519470215 63.4763641357422 77.1139221191406 83.6793746948242 83.3568344116211 90.7035751342773 100.642684936523 125.211982727051 160.854827880859 206.417724609375 238.920211791992 271.346252441406 292.409393310547 309.417724609375 313.278472900391 336.763336181641 340.007385253906 317.177215576172 311.372863769531 307.012329101563 293.018920898438 276.303649902344 239.418518066406 211.241149902344 165.537094116211 141.27848815918 117.802436828613 102.468353271484 83.3291168212891 76.6708831787109 73.3204650878906 70.8000335693359 70.7433090209961 69.544303894043 60.2182350158691 55.4430389404297 54.7949028015137 61.8314361572266 93.1666412353516 119.156387329102 119.962028503418 121.316452026367 152.898727416992 183.300109863281 186.316452026367 210.101272583008 211.924057006836 210.892486572266 196.810760498047 179.884948730469 147.897933959961 136.495758056641 109.506332397461 94.6913986206055 75.9493637084961 70.3670883178711 60.7974700927734 55 55 55 55 55.5063285827637 55 55 56 56 56 57 56 56 55 59.228328704834 81.7280883789063 102.481010437012
47 50.0206680297852 51.544303894043 51.5962181091309 52.7654228210449 54.0865249633789 53.455696105957 68.8607559204102 83.0886077880859 89.2278518676758 101.13924407959 110.92308807373 119.058166503906 148.323348999023 190.723281860352 251.854187011719 293.658233642578 308.556976318359 313.066009521484 329.657897949219 340.679229736328 336.148223876953 320.074035644531 287.694763183594 270.334564208984 269.679046630859 272.271575927734 252.026443481445 234.139236450195 204.311965942383 164.139083862305 127.037971496582 107.712066650391 94.2405090332031 81.7407455444336 77.544303894043 76.7441101074219 74.544303894043 79.1892318725586 79.8014755249023 63.5529556274414 55.6968421936035 55 54.6329116821289 68.5734634399414 88.2597351074219 94.5963821411133 97.0886077880859 132.969879150391 144.11408996582 145.531646728516 167.971160888672 160.976928710938 160.950485229492 170.217437744141 163.488861083984 129.949371337891 120.113922119141 116.160873413086 106.801795959473 89.1519012451172 73.7947463989258 58.7468338012695 55 55 55 55 56 56 56 56 56 57 57 56 56 55 57.8481025695801 71.8274307250977 92.9113922119141
47 50.0379753112793 53.5822792053223 54 54.6457290649414 53.8101272583008 59.1453285217285 72.9211654663086 90.556640625 98.1301040649414 101.120651245117 125.575065612793 156.265823364258 174.640289306641 193.72151184082 265.161987304688 314.898101806641 341.773284912109 339.727111816406 329.714294433594 334.113922119141 329.333770751953 326.739624023438 301.082672119141 270.6591796875 249.493515014648 237.045349121094 223.862838745117 222.83544921875 182.814453125 150.670883178711 113 101.620254516602 89.6410827636719 89.3770217895508 85.8083648681641 80.4191665649414 76 82.8655700683594 84.7848129272461 63.1518974304199 58.1645584106445 55.2358589172363 55 54.8083648681641 64.7138290405273 69.4005737304688 70.1658401489258 92.6835479736328 117.949363708496 117.717193603516 132.34065246582 115.289054870605 115.220474243164 134.122253417969 136.216156005859 128.367095947266 105.904182434082 111.037971496582 110.177215576172 104.468353271484 82.7159118652344 59.455696105957 59.5183448791504 57.1518974304199 55 55 55 56 56 56 57 57 57 56 56 55 56.3417739868164 63.6170501708984 75.9240493774414
47 50.0379753112793 54 54.9293365478516 54 59.3582763671875 72.945198059082 82.5063323974609 93.4459228515625 103.971481323242 109.85578918457 145.410995483398 182.455703735352 190.035568237305 196.568984985352 245.065536499023 284.683532714844 336.623626708984 344.474761962891 313.607604980469 300.288421630859 295.606628417969 299.708862304688 306.192291259766 289.240509033203 242.658233642578 209.083801269531 188.699722290039 175.962020874023 147.049667358398 122.42813873291 107.270469665527 96.9493637084961 85.5241165161133 100.873420715332 99.0775527954102 91.6202545166016 78.9892654418945 94.1898727416992 89.0181045532227 71.2459564208984 65.6835479736328 56.4303779602051 55 55.254768371582 60.0286827087402 55.3493041992188 54.5696220397949 77.9367065429688 93 94.6966857910156 98.0759506225586 91.4399948120117 87.1567077636719 99.7215194702148 120.25316619873 127.903861999512 104.721519470215 95.1528625488281 95.2784805297852 94.8942489624023 86.6899566650391 73.3717346191406 72.0759506225586 61.9758033752441 55 55 55 56 56 57 57 57 57 56 56 55 55 54.4033012390137 59.3797454833984
47.6582260131836 50.0129776000977 52.3417739868164 59.6553421020508 64.6075973510742 76.3053970336914 88.5189895629883 93.7386627197266 96.9746856689453 100.233619689941 118 160.430374145508 196.734176635742 212.118255615234 221.345458984375 250.098220825195 280.460815429688 328.287628173828 329.582275390625 310.272399902344 293.462097167969 274.924865722656 268.050628662109 292.271118164063 287.561920166016 234.501678466797 208.717514038086 164.421722412109 140.44303894043 123.670883178711 115.151901245117 114.949363708496 111.050636291504 107.924049377441 113.707099914551 107.112480163574 105.632911682129 92.4810104370117 101.252685546875 91.5444641113281 75.7344970703125 63.203010559082 55.7468338012695 55 55 55 55 55.5696220397949 73.3164520263672 79.7691040039063 88.5476684570313 86.4087448120117 86.0419769287109 76.037971496582 87.126579284668 95.9823760986328 122.065376281738 107.164558410645 79.4616241455078 73.7087020874023 69.2972259521484 69.3924026489258 70.0506362915039 68.5241165161133 59.2531661987305 55 55 55 56 56 57 57 57 57 56 56 56 55 55 56.3417739868164
49 50 51 66.8767852783203 80 90.2840881347656 105.772148132324 115.116966247559 119.265823364258 123.13410949707 140.708862304688 175.798431396484 199.594131469727 220.455703735352 246.72151184082 272.683532714844 294.5263671875 310.506164550781 308.432769775391 290.455047607422 274.298034667969 251.341766357422 246.189880371094 276.684020996094 284.319671630859 231.321899414063 206.026443481445 182.141479492188 168.335678100586 145.600387573242 140.177215576172 136.661437988281 139.630828857422 136.608551025391 135.99983215332 110.492385864258 104.814933776855 114.573143005371 124.662872314453 117.791702270508 98.1519012451172 68.1438903808594 55.4050636291504 54.3037986755371 54.7708702087402 55 55 55.2384223937988 61.5569610595703 74.4936676025391 85.8282318115234 81.8227844238281 69.5872421264648 62.2278480529785 68.2630996704102 80.9857406616211 113.683547973633 111.266464233398 79.2911376953125 65.5092163085938 54.7215194702148 54 54 54.119213104248 55 55 55 55 56 56 57 58 58 57 57 56 56 56 55 55.6962013244629
51 50.744270324707 51.7341766357422 66.7974700927734 86.3520278930664 98.0124969482422 113.812850952148 131.336486816406 136.776962280273 140.837692260742 160.253158569336 191.028198242188 205 224.286499023438 248.611755371094 264.809173583984 274.2880859375 275.658233642578 290.864440917969 267.198699951172 245.948089599609 233.778564453125 234.158782958984 261.189880371094 275.732421875 251.116333007813 221.227844238281 211.911392211914 196.088607788086 179.745239257813 167.619293212891 149.848098754883 161.892639160156 150.991348266602 147.849548339844 112.367088317871 104 126.677291870117 153.945526123047 139.797470092773 125.722801208496 95.8315963745117 68.3227081298828 65.4050598144531 60.5316467285156 55.2911376953125 55 55 55.2187156677246 61.4819755554199 82.8607559204102 82.4092330932617 55.4109916687012 55.0312461853027 65.6582260131836 86.5154647827148 108.784812927246 107.684669494629 90.1898727416992 71.0639343261719 54.9133148193359 55 55 55 55 55 55 55 56 56 57 58 58 58 57 57 56 56 55 57
52 51 59.3750991821289 72.6841888427734 93.1392440795898 110.842811584473 130.772155761719 137.434860229492 124.227851867676 124.630989074707 136.995834350586 163.905303955078 188.121459960938 214.656784057617 238.828231811523 244.367095947266 244.367095947266 235.488861083984 249.746841430664 257.152374267578 240.987335205078 222.810928344727 217.594940185547 232.388885498047 247.012664794922 256.161193847656 242.39241027832 227.784805297852 220.327346801758 217.381988525391 205.873260498047 181.54670715332 187.669281005859 170.943756103516 156.382797241211 122.481971740723 115 122.314849853516 131.493347167969 136.920043945313 122.544303894043 102.556640625 93.399772644043 82.6455688476563 68.8344802856445 56.5822792053223 55 55 55 55.0568809509277 68.0402145385742 78.9511260986328 61.4430389404297 56.0310859680176 69.5305252075195 81.6329116821289 93.4936676025391 94.785774230957 104.164558410645 84.0591278076172 65.0253143310547 54.7556495666504 55 55 55 55 55 56 56 57 57 58 58 58 57 57 57 56 56 56
52 50.0379753112793 66.6075973510742 87.5390167236328 106.392402648926 127.846176147461 148.574905395508 149.266143798828 119.317893981934 111.533248901367 125.564651489258 144.506332397461 162.565460205078 183.195007324219 210.329116821289 219.569625854492 220.139236450195 200.097259521484 207.113922119141 243.926300048828 252.197570800781 221.417236328125 204.943435668945 209.126586914063 219.303802490234 234.357467651367 228.949371337891 212.996948242188 207.582916259766 226.119537353516 241.834320068359 223.784805297852 218.265823364258 198.708862304688 171.924057006836 147.83544921875 138.316452026367 124.697166442871 110.628425598145 116.04069519043 96.6356353759766 87.5696182250977 93.9493637084961 72.0443801879883 61.9612236022949 55.481014251709 55 55 55 55 54.8987350463867 67.0006408691406 61.6250610351563 55.1874694824219 55.060245513916 60.936710357666 68.4949493408203 80.8227844238281 97.7721481323242 91.5189895629883 79.6433258056641 60.5410995483398 55.5229949951172 55 55 55 56 56 56 57 57 58 58 58 58 57 57 57 56 56
49.1518974304199 50.8860740661621 60.6306686401367 75.8953704833984 95.8860778808594 124.524597167969 149.87678527832 151.43278503418 122.583076477051 96.8240661621094 107.341773986816 133.923889160156 151.601669311523 163.516098022461 177.194686889648 182.339691162109 181.459381103516 179.069702148438 194.101272583008 235.240509033203 251.05207824707 222.481018066406 201.949371337891 194.018753051758 206.950973510742 211.506332397461 207.039901733398 175.589965820313 174.737228393555 214.331832885742 240.919891357422 225.723114013672 210.723602294922 188.417236328125 172.60758972168 139.986053466797 126.248039245605 128.737701416016 123.282485961914 106.035087585449 81.1168060302734 73.0506362915039 66.873420715332 55.8456993103027 55 55 55 55 55 55 55 54.0096130371094 54.9785308837891 55 55 54.9248504638672 55.291618347168 68.7341766357422 85.8299942016602 85.8227844238281 73.6202545166016 61.774715423584 55.6455688476563 55 56 56 56 56 57 57 58 58 59 58 58 58 57 57 57 56
47.1139259338379 51.0379753112793 52.1139259338379 52.2148704528809 65.9286956787109 100.37606048584 127.620895385742 125.901458740234 96.4396743774414 71.0749893188477 89.0527191162109 113.576187133789 125.610160827637 139.451522827148 143.151901245117 141.797470092773 148.487747192383 170.518981933594 205.540451049805 234.316299438477 242.26789855957 219.415481567383 201.151901245117 183.50456237793 190.091171264648 184.449920654297 182.481018066406 161.12370300293 164.849868774414 202.355545043945 222.218399047852 200.265823364258 172.39241027832 147.193405151367 133.169357299805 103.039413452148 102.540458679199 136.578598022461 146.696044921875 120.835441589355 104.130744934082 86.6329116821289 77.9158782958984 57.3847122192383 54.0764312744141 54.1139259338379 55 55 55 55 55 55 55 55 55 55 55 55.3666076660156 67.8860778808594 67.415641784668 60.7848091125488 55.0778732299805 55 55 56 56 57 57 57 57 58 58 59 58 58 58 57 57 57 57
46.0759506225586 50.0379753112793 51.0759506225586 52.1898727416992 67.9113922119141 87.6364364624023 92.5143432617188 94.2100601196289 70.1668014526367 51.3677291870117 77.1301040649414 96.8416900634766 101.531646728516 112.277519226074 117.491264343262 115.531646728516 140.287460327148 170.873413085938 206.191162109375 231.156219482422 246.087158203125 232.301071166992 206.27880859375 185.708862304688 170.720718383789 147.83544921875 141.518981933594 143.455703735352 142.708862304688 183.298828125 200.329116821289 175.113922119141 147.16455078125 122.246597290039 101.13924407959 87.2788009643555 102.569618225098 138.025314331055 170.152221679688 147.177215576172 142.469802856445 110.991668701172 105.17000579834 66.7088623046875 64.9110717773438 66.8133316040039 55.7210388183594 54.0759506225586 54.0759506225586 54.0759506225586 55 55 55 55 55 55 55 55 54 54.0182647705078 55 55 55 55 56 56 57 57 57.9240493774414 58 58 58.9240493774414 59 59 58.9240493774414 58.9240493774414 58 58 57.9240493774414 57.9240493774414
46 48.0759506225586 50.1139259338379 52 64.8032379150391 74.7413864135742 69.7428283691406 67.2658233642578 59.2174339294434 52.3797454833984 68.6962051391602 84.4715576171875 90.642204284668 95.6835479736328 101.58740234375 111.535331726074 145.516738891602 174.530838012695 197.089248657227 214.027404785156 237.544296264648 227.645568847656 195.474609375 177.493667602539 159.484375 134.390487670898 124.126098632813 118.203491210938 116.455696105957 147.130432128906 155.354431152344 145.58821105957 131.991821289063 99.4273376464844 86.8497009277344 81.037971496582 91.0152206420898 123.111198425293 162.291137695313 168.849548339844 157.292587280273 111.451530456543 103.810127258301 77.3683700561523 89.7848129272461 82.1155242919922 62.8987350463867 54.2151908874512 53 53 54.0379753112793 53.0379753112793 53.0379753112793 53.0379753112793 53.0379753112793 53.0379753112793 54.0379753112793 54.0379753112793 54.0379753112793 54.0379753112793 54.0379753112793 54.0379753112793 54.0379753112793 54.0379753112793 55 54.0379753112793 55.0379753112793 54.0759506225586 55.0379753112793 54.0759506225586 54.0759506225586 55.0759506225586 54.1139259338379 54.1139259338379 55.0759506225586 55.0759506225586 55.0379753112793 54.0759506225586 55.0379753112793 55.0379753112793
46 46.0379753112793 48.0759506225586 52 57.3037986755371 61 56.544303894043 53 53 52 61.518985748291 67 74.3670883178711 86.4810104370117 100.594940185547 113.278480529785 148.291137695313 167 185.101272583008 193 211.316452026367 201.417724609375 174.987335205078 163.126586914063 157.177215576172 147.151901245117 123.088607788086 107.924049377441 94 110.506332397461 115 116.177215576172 119.354431152344 87.2278518676758 74.7088623046875 68.6708831787109 78.2025299072266 122.86075592041 151.658233642578 170.962020874023 157.367095947266 122.101264953613 105.215187072754 94.3670883178711 103.670883178711 82.7468338012695 67.7594909667969 55.4303779602051 54.8227844238281 53 53 52 52 52 52 52 52 52 52 52 52 52 53 52 52 52 51 51 51 50 50 50 50 50 50 50 50 51 51 51
